# .PCD v0.7 - Point Cloud Data file format
VERSION 0.7
FIELDS x y z
SIZE 4 4 4
TYPE F F F
COUNT 1 1 1
WIDTH 1394
HEIGHT 1
VIEWPOINT 0 0 0 1 0 0 0
POINTS 1394
DATA ascii
1.0820801 -0.34484029 0.012470447
1.0818654 -0.35449904 0.012734598
1.0820807 -0.36431658 0.012470867
1.0813856 -0.37454203 0.012823048
1.0821069 -0.38485849 0.014112924
1.0840926 -0.39317584 0.015021274
1.0873214 -0.40751904 0.011065146
1.0832219 -0.41610572 0.012188115
1.082496 -0.42391253 0.014472031
1.0748197 0.60241908 0.0011756282
1.0757823 0.59698486 0.0016766799
1.0690953 0.58905542 0.0083420826
1.0762174 0.36515713 0.0034063847
1.0732296 0.33286697 0.0031662656
1.0745876 0.32576075 0.0027458449
1.0729116 0.26442266 0.0035643864
1.0725935 0.25782633 0.0039625829
1.0745016 0.24205098 0.0015737351
1.0767097 0.23341656 0.003286862
1.0740849 0.22596739 0.0037993549
1.0741837 0.20124002 0.001971856
1.0737718 0.19315995 0.0058910795
1.0745196 0.18445094 0.0066562411
1.0738728 0.17710502 0.0040648682
1.0748197 0.16387928 0.0011756282
1.0763115 0.15515211 0.0037840365
1.0763626 0.14573902 0.0043586832
1.0760641 0.13651246 0.0032728992
1.0758396 0.12632637 0.0024580169
1.076349 0.114894 0.0030990897
1.0762725 0.10408638 0.0039610029
1.0749596 0.093878932 0.0067444355
1.0742985 0.084367231 0.0064282715
1.0753701 0.074032754 0.0055957669
1.0752275 0.064264931 0.0057720179
1.0755817 0.054529063 0.0053301379
1.0757948 0.044779938 0.0050651887
1.0755823 0.035010964 0.0053302674
1.0750154 0.025235713 0.0060374131
1.0754406 0.015487871 0.0055070552
1.0759376 0.0057338877 0.0048891376
1.0740235 -0.0040205563 0.0072747446
1.0740229 -0.013766348 0.0072744144
1.0750858 -0.023535635 0.0059487242
1.0744659 -0.034891106 0.0067220517
1.0731013 -0.046198037 0.0084231524
1.0735619 -0.05482313 0.009539797
1.075798 -0.066263162 0.0065164026
1.0750152 -0.075553514 0.0060372893
1.0738813 -0.085204214 0.0074512293
1.0745833 -0.094195917 0.0096204523
1.0745832 -0.10522561 0.0096204383
1.0741465 -0.11428991 0.0096564023
1.0745982 -0.12317564 0.010361061
1.0752624 -0.13370495 0.010800759
1.0742782 -0.17661646 0.010758164
1.0737207 -0.18556112 0.010186202
1.0754757 -0.19373129 0.010536025
1.0748359 -0.21628618 0.01133023
1.0748359 -0.2227678 0.01133023
1.0748359 -0.23735145 0.01133023
1.0739437 -0.24454756 0.010414939
1.0728179 -0.25378445 0.0087766722
1.0743076 -0.26258236 0.0086126542
1.0741993 -0.32567841 0.010097092
1.0745723 -0.33498988 0.0091262152
1.0742782 -0.34354562 0.010758164
1.0748359 -0.36374307 0.01133023
1.0748359 -0.37022471 0.01133023
1.0653256 0.82150203 0.0015886117
1.0646896 0.81432593 0.00073420949
1.0661564 0.80783176 -0.0033338522
1.0668783 0.79397452 -0.00295806
1.0686235 0.78465718 -0.0012980762
1.0659325 0.77525967 -0.0017593424
1.0661564 0.69208336 -0.0033338522
1.0657362 0.68362504 -0.0028010255
1.0661564 0.67415047 -0.0033338522
1.0684466 0.66379458 -0.0017190396
1.0660502 0.65436029 -0.0011343977
1.0648959 0.6455667 -0.0017352526
1.0642656 0.62398297 -0.00093592174
1.0670472 0.61422712 -0.00077645143
1.0681325 0.60509276 -0.00067690329
1.0662364 0.59475595 0.00107624
1.0635387 0.58564186 0.0040969695
1.0609568 0.57476097 0.0032604027
1.0627013 0.56605268 0.0027592725
1.0657802 0.36475611 0.002294875
1.0668809 0.35507098 4.9522761e-05
1.0637432 0.34315851 0.0035833851
1.0648397 0.33431041 0.0029704163
1.0647616 0.32379484 0.0035811898
1.0664046 0.31487331 0.0035594602
1.0675105 0.30493611 -0.0019525802
1.0659462 0.29586479 -0.003067439
1.0672851 0.28605264 -0.0021826469
1.0669576 0.27553207 -0.00066225033
1.0658849 0.26569188 0.0021616768
1.0659835 0.25523788 0.0025511377
1.0670233 0.24486315 0.00072490796
1.0667274 0.23448843 0.0010970609
1.0663856 0.22532444 0.0022610256
1.0654237 0.21812873 0.0053037191
1.064945 0.20245457 0.0050545484
1.0641991 0.19385143 0.0042905095
1.0655839 0.18470204 0.0056126271
1.0660009 0.17346124 0.0037252391
1.0668699 0.16512839 0.00092055317
1.0665983 0.15503904 0.0043366426
1.0651381 0.14487863 0.0037457112
1.0656747 0.13567668 0.0024279801
1.0658858 0.12595893 0.0021620127
1.0661671 0.1166058 0.0024494121
1.0651836 0.10638228 0.0030491669
1.0659021 0.098680019 0.005552738
1.0665419 0.081895575 0.0064493925
1.0659512 0.073856711 0.004638779
1.066584 0.064165875 0.0038408733
1.0665252 0.053993668 0.0028169779
1.0656029 0.044706523 0.0025158997
1.0650417 0.034940269 0.003225748
1.0646631 0.025585681 0.0043439805
1.0664706 0.01610337 0.0044958335
1.0674931 0.0089623043 0.0052534407
1.0662249 -0.01697628 0.0068480088
1.0678102 -0.02512067 0.0048548398
1.0666475 -0.036436822 0.0063165156
1.0662249 -0.042902771 0.0068480088
1.0672817 -0.075397156 0.0055191941
1.0665419 -0.083440542 0.0064493925
1.0565126 0.82405031 -0.00074410584
1.0558343 0.81452733 -0.0010407194
1.0589206 0.8049348 -0.0044698878
1.0596859 0.79419684 -0.0054493295
1.0591285 0.7839542 -0.0047373115
1.059019 0.77420181 -0.0039488436
1.0574644 0.76571178 -0.0033486865
1.0569011 0.75609308 -0.0018883105
1.0561069 0.74640417 -0.0015187666
1.0574397 0.73539829 -0.0025723756
1.0564977 0.72822803 -0.0052610952
1.0584555 0.70132142 -0.0073422948
1.0598594 0.69495517 -0.0056721065
1.0596677 0.68580246 -0.0049074083
1.0595044 0.67514467 -0.0052180309
1.0590502 0.66504908 -0.0046371836
1.0572035 0.65545416 -0.0029208022
1.0571767 0.64573324 -0.00076070376
1.0569085 0.63488114 -0.00041705818
1.0577959 0.62540174 -0.0025614323
1.057526 0.61441642 -0.0032039688
1.0578449 0.60420477 -0.0024462945
1.056545 0.59507048 -0.0014317085
1.0552961 0.58490497 -0.00086996832
1.056658 0.57450485 -0.0010628186
1.059196 0.56583369 -0.0048272461
1.0576428 0.55679697 -0.0045711119
1.0576138 0.36219865 0.0023657738
1.0576138 0.35895783 0.0023657738
1.0576138 0.33465174 0.0023657738
1.0613836 0.30184194 -0.00243605
1.0589702 0.29475564 -0.0030481461
1.0578083 0.28535897 -0.0030444283
1.0562766 0.27515215 -0.0010860339
1.0561912 0.26561692 0.00049802172
1.0564927 0.2553381 0.0012187045
1.057016 0.24574989 0.00055156159
1.0586609 0.23607473 0.0010319992
1.0576138 0.14182347 0.0023657738
1.0580326 0.13540208 0.0018322578
1.0578232 0.12564844 0.0020990302
1.0584515 0.044639308 0.0012987567
1.057928 0.036509983 0.0019656438
1.0517173 0.85021847 -0.010849671
1.0484172 0.84657878 -0.011815954
1.0478941 0.83436686 -0.0072029415
1.0471959 0.82659155 -0.00498953
1.047824 0.81463134 -0.0047591976
1.0488224 0.80529898 -0.0070957527
1.0488927 0.79560918 -0.0071841241
1.0493865 0.78487021 -0.0073485877
1.0488242 0.77546704 -0.0078460583
1.0482709 0.76583815 -0.0063805217
1.0473744 0.75535667 -0.0052187806
1.046823 0.74517369 -0.0045036254
1.0478789 0.73514014 -0.0032650304
1.0489286 0.72514784 -0.0042486074
1.0482506 0.71653473 -0.0050445041
1.0494719 0.70471579 -0.0071869725
1.0499952 0.6956743 -0.0086146398
1.0497187 0.68570578 -0.0082575129
1.049986 0.67628145 -0.007946129
1.0490551 0.66585088 -0.0067394776
1.0490633 0.65523577 -0.0034940839
1.050119 0.62394571 -0.0052932012
1.0479945 0.616229 -0.006023291
1.0479296 0.60636574 -0.0044466215
1.0479826 0.5958057 -0.0033990301
1.0478789 0.58601254 -0.0032650304
1.0488113 0.57524395 -0.0044706832
1.0500038 0.56632596 -0.0091486275
1.0495125 0.55544448 -0.0079890769
1.0460544 0.54592413 -0.0045529474
1.0440918 0.84525084 -0.011436951
1.0425501 0.83570886 -0.0094209602
1.0416251 0.82999557 -0.0082114143
1.0416251 0.8105244 -0.0082114143
1.0393097 0.80380183 -0.0089334799
1.0384655 0.79614168 -0.0082777543
1.0403918 0.78998572 -0.0065986826
1.0403918 0.76243883 -0.0065986826
1.0403918 0.75433683 -0.0065986826
1.0394449 0.69421434 -0.0086413799
1.0393387 0.6859479 -0.0097235097
1.0434752 0.56340551 -0.010630534
1.0394188 0.55393702 -0.0099236183
1.0383418 0.54577637 -0.0081166578
1.2453971 0.35324687 0.080945991
1.2403332 0.35512295 0.077182725
1.2305322 0.36016348 0.07151749
1.2323543 0.35700122 0.071902268
1.2247198 0.36016348 0.068491995
1.2227814 0.35617411 0.068234541
1.2149094 -0.45909208 0.067331247
1.1989774 -0.45520863 0.061292879
1.1939179 0.35860121 0.059786763
1.1910022 -0.44897059 0.056014434
1.1840264 0.36194912 0.054262113
1.1844995 0.35884157 0.053756889
1.1830518 -0.4454008 0.053003296
1.1787084 0.36211082 0.050742485
1.1768682 0.35756341 0.04809352
1.1758128 -0.4454008 0.049235284
1.1668967 0.3576695 0.044970099
1.1686916 -0.444433 0.042992014
1.1575171 0.36178744 0.041215099
1.1584382 0.35884157 0.04019139
1.159592 -0.43935215 0.038913079
1.1513482 0.36267674 0.03387044
1.1540214 0.35932225 0.035637654
1.1498306 -0.43827432 0.037965722
1.1381707 0.63019162 0.029641686
1.1423099 0.36418831 0.029729439
1.1406345 -0.43439376 0.029233254
1.1308259 0.62448847 0.023563894
1.1334399 0.36304942 0.026615551
1.1328321 -0.42712077 0.02415722
1.1352751 -0.43232369 0.028134484
1.1256942 0.62163037 0.019765282
1.121881 0.61959451 0.014398477
1.1245741 0.36459872 0.018618632
1.1230021 -0.27805299 0.01554565
1.123902 -0.28609839 0.016953615
1.121881 -0.29291716 0.014398477
1.121881 -0.41600779 0.014398477
1.1247882 -0.42202553 0.015911732
1.1149526 0.36643836 0.014818213
1.1133633 -0.16539299 0.013346801
1.1130641 -0.17378607 0.011218169
1.1131594 -0.1977271 0.0098587098
1.1150111 -0.20340429 0.011386321
1.1111873 -0.21043479 0.01221414
1.1131594 -0.24696335 0.0098587098
1.1137481 -0.25429529 0.011292352
1.1148051 -0.26549163 0.012164702
1.1161617 -0.27641878 0.014803392
1.115012 -0.28627545 0.014043902
1.1151273 -0.29561722 0.011869462
1.1141747 -0.30591038 0.011138746
1.113626 -0.31557798 0.011792609
1.1136646 -0.32486844 0.011248925
1.1131594 -0.33230618 0.0098587098
1.110792 -0.36971149 0.017645188
1.1111217 -0.374735 0.017253151
1.1147223 -0.38450623 0.014955897
1.1149685 -0.39423424 0.012679446
1.11439 -0.4046413 0.011948667
1.1163771 -0.41299713 0.012660823
1.1085577 0.61016697 0.015354888
1.1063195 0.60730666 0.013062487
1.1066753 0.36649951 0.0094557479
1.1037863 0.19603199 0.0061070789
1.1052098 0.18558455 0.0063971449
1.1053401 0.17707729 0.0062394901
1.1044378 0.1699035 0.0053189434
1.1044378 0.13379693 0.0053189434
1.1044378 0.11246122 0.0053189434
1.1044378 0.091125511 0.0053189434
1.1057242 0.083410867 0.0071157599
1.1053482 0.074671172 0.0067321998
1.1044378 0.066507392 0.0053189434
1.1044378 0.053377725 0.0053189434
1.1034606 0.046766602 0.0065012584
1.1050228 0.035292655 0.0071264254
1.1050795 0.02611964 0.0065547237
1.1044378 0.018912358 0.0053189434
1.1041121 0.0041406523 0.0057130186
1.1053486 -0.0040619294 0.0067323651
1.1055657 -0.013907163 0.0064696395
1.1055657 -0.023751127 0.0064696395
1.1055657 -0.033595089 0.006469653
1.1040035 -0.043434959 0.0058443672
1.1052876 -0.076191448 0.0076400004
1.1060243 -0.085249707 0.01042855
1.1040775 -0.095649898 0.010768156
1.1021169 -0.10525545 0.013129639
1.1049755 -0.11590432 0.011686473
1.1045454 -0.12496897 0.01270273
1.1033453 -0.13460833 0.014144761
1.1050094 -0.14443374 0.014635258
1.1061016 -0.15440205 0.01332496
1.1068593 -0.16398549 0.011793362
1.1067266 -0.17438175 0.010080154
1.1064026 -0.1844203 0.0079700658
1.106775 -0.19369687 0.0089512998
1.10548 -0.2050513 0.01307658
1.1063195 -0.21655352 0.013062487
1.1037216 -0.22667861 0.014190421
1.1049775 -0.23560676 0.011687387
1.1095968 -0.24351838 0.0091315815
1.1049187 -0.25784722 0.013084836
1.1058676 -0.26616013 0.012183097
1.1069763 -0.27558282 0.012277049
1.1066958 -0.28501242 0.011990035
1.1065087 -0.29550871 0.010342626
1.1066177 -0.30536595 0.010211443
1.1065085 -0.31515655 0.010342357
1.1068356 -0.32509017 0.0099488646
1.1064125 -0.33526912 0.0079573616
1.1041121 -0.3436805 0.0057130186
1.1056404 -0.36690295 0.015865861
1.105207 -0.37658659 0.015019973
1.1054399 -0.38543573 0.013409872
1.105854 -0.39512375 0.011129097
1.105173 -0.40526986 0.012304699
1.0931333 0.84709722 0.0039440519
1.0950706 0.81271458 0.0015703395
1.0950706 0.80779421 0.0015703395
1.098191 0.76368111 0.0028188741
1.0974891 0.75568897 0.0041821469
1.095328 0.74706614 0.0032824485
1.0969952 0.60208893 0.0067998399
1.0979112 0.36493808 0.0031618392
1.0957164 0.35536003 0.00077917654
1.0962335 0.31346539 0.0021757432
1.0934563 0.30213374 0.0035483588
1.0950699 0.29342979 0.003599308
1.096969 0.28430229 0.0043121614
1.097617 0.27465478 0.0035222368
1.0959588 0.26578045 0.0017508623
1.0957164 0.25852874 0.00077917654
1.0957164 0.23391062 0.00077917654
1.0975162 0.22517112 0.0021991681
1.0980481 0.21572958 0.0029947869
1.0974007 0.20575097 0.003785389
1.0968254 0.19579983 0.0044880761
1.0966817 0.18594269 0.0046637915
1.0968258 0.17614083 0.0044882963
1.0970422 0.16634962 0.0042250399
1.0956317 0.15722676 0.0046807858
1.0968039 0.14582099 0.0065310644
1.0978885 0.13513143 0.0057145981
1.0979741 0.12422834 0.0045309397
1.09824 0.11388712 0.00528704
1.0987808 0.10411462 0.0046288469
1.0992132 0.094325416 0.0041024326
1.0974834 0.084335037 0.0062083695
1.0979156 0.074546203 0.0056815525
1.0971857 0.064769536 0.0040491112
1.0982407 0.05491823 0.0052872659
1.096251 0.044497699 0.0087879496
1.096078 0.035178024 0.0079195695
1.0974833 0.025407746 0.0062084738
1.0986725 0.015606985 0.0047604935
1.09824 0.0057728589 0.0052869357
1.0978073 -0.0040550642 0.0058131851
1.09672 -0.014288802 0.0052473443
1.0966817 -0.023711503 0.0046636723
1.0966817 -0.033539042 0.0046637915
1.0980171 -0.044305742 0.0051979241
1.0991608 -0.053277094 0.0033236276
1.0983783 -0.067181855 0.0038558375
1.0973536 -0.076386325 0.0082546491
1.0970813 -0.084557503 0.010884216
1.0985737 -0.092133284 0.012412688
1.0985737 -0.13291714 0.012412688
1.0985737 -0.14759932 0.012412688
1.0970812 -0.15528238 0.010884425
1.0972006 -0.16417006 0.009067541
1.0978507 -0.17409031 0.0082785031
1.0989321 -0.18410486 0.0069624861
1.0995718 -0.19447549 0.0081973374
1.0992253 -0.20156813 0.011624551
1.0981771 -0.265962 0.011642483
1.0977801 -0.27503017 0.010872189
1.0966957 -0.28493097 0.0096814213
1.0969125 -0.29479423 0.0094187167
1.1001308 -0.30410716 0.0092774471
1.1018316 -0.31505117 0.0084717097
1.0998921 -0.32526565 0.0088151256
1.0973632 -0.33397022 0.0074342382
1.096669 -0.34187365 0.0080391448
1.0985737 -0.38903975 0.012412688
1.0985392 -0.39614114 0.009952209
1.097617 -0.40392435 0.011069255
1.0893761 0.85288316 0.0034914906
1.0890272 0.84626085 0.0026521499
1.0873344 0.83891195 0.00092560437
1.0893945 0.81447029 0.00041945497
1.089727 0.80421668 0.00088248833
1.0870105 0.79525167 -0.00037029822
1.089581 0.76212591 -0.0018507411
1.0885106 0.75472289 -0.00052900001
1.086978 0.74533749 0.0013664878
1.0881252 0.7350015 0.00041474626
1.086684 0.72803426 -0.0016678004
1.0869948 0.69509012 -0.003760604
1.0869948 0.68852526 -0.003760604
1.0883009 0.6026656 0.0014286927
1.0882391 0.3646751 0.0038767147
1.0889798 0.35532591 2.828055e-05
1.0886201 0.34505028 -0.00065986806
1.0864199 0.33495554 -0.00048982649
1.0884782 0.32478797 -0.00048325828
1.0883018 0.31512824 0.0014292924
1.0883951 0.30521935 0.0032492685
1.0878428 0.2945579 0.0024787963
1.0873764 0.28352392 0.0015112153
1.0872642 0.27418655 0.0010144114
1.0876212 0.26446405 0.00057385827
1.0882635 0.25481093 -0.00021907978
1.0891743 0.24546947 0.00011172695
1.0896429 0.23513134 0.00062415347
1.0885479 0.22538693 -0.00057218235
1.0883336 0.21550557 -0.00030799813
1.0876207 0.20552216 0.00057363813
1.0878208 0.19544454 0.0028696503
1.0882229 0.18475251 0.0036427183
1.0878204 0.17582087 0.0028694714
1.0878204 0.16600972 0.0028694852
1.0881835 0.15567338 0.0043270071
1.0880182 0.14619668 0.0051646475
1.0891087 0.13585763 0.0043293717
1.0881753 0.12440908 0.0039562443
1.0885905 0.11360367 0.004460481
1.0879467 0.10372993 0.0052526486
1.0878751 0.093925081 0.0053406646
1.0878751 0.084128194 0.0053406782
1.0893151 0.074844256 0.0050166398
1.0879805 0.06617628 0.0052076513
1.090335 0.054714531 0.0073726289
1.0899045 0.044900477 0.007900076
1.0901197 0.035119478 0.0076365676
1.0898278 0.024524998 0.0067328727
1.0889078 0.015152479 0.0047040652
1.0883048 0.0057561765 0.0048127775
1.0894067 -0.0035812606 0.0049032485
1.0901535 -0.01304576 0.0038021936
1.0889462 -0.023662493 0.0040192674
1.0876586 -0.030162049 0.0056037344
1.0915189 -0.04489648 0.0059221755
1.0899045 -0.052980781 0.0079001803
1.0909808 -0.0661062 0.0065814662
1.0902274 -0.07421273 0.0075046057
1.0899045 -0.15738745 0.0079001803
1.0902274 -0.16233653 0.0075046057
1.0794095 0.85174114 0.00055838603
1.0794806 0.84527117 0.00047013615
1.0796934 0.83565807 0.00020516755
1.0796219 0.82579529 0.00029331533
1.0799761 0.8153944 0.00036476884
1.0796229 0.80510259 0.00029354703
1.0791016 0.79584914 0.00030413445
1.0771029 0.78595376 -0.00083013991
1.0794097 0.77525014 -0.0071451333
1.0803183 0.7642175 -0.0062212702
1.0805444 0.7553106 -0.005990902
1.0791299 0.74600321 -0.0042217677
1.0777178 0.73508239 -0.0024516655
1.0779306 0.72543162 -0.0027166205
1.0779731 0.71655935 -0.0062020081
1.0807043 0.70540416 -0.0061894604
1.0806189 0.69525701 -0.003509548
1.0813355 0.68539387 -0.0047736135
1.0809683 0.67524463 -0.00652172
1.0792723 0.66585433 -0.0043983716
1.0783659 0.65444362 -0.0071248426
1.0788807 0.64527899 -0.0064811232
1.0791824 0.63649291 -0.0073762047
1.0782732 0.62944174 -0.0083003705
1.0776391 0.61918122 -0.0075031533
1.0782784 0.60575885 0.00094663858
1.0801104 0.59976214 0.0022384909
1.0812353 0.36138323 0.0033876584
1.0785222 0.35569748 0.00020389621
1.0791308 0.34588024 -0.0016536454
1.0790577 0.3366068 -0.00028246845
1.0796216 0.3242957 0.00029288654
1.0791018 0.31566715 0.00030427205
1.0791969 0.30619094 0.00082346465
1.0798481 0.29585257 0.00052376738
1.0788701 0.28533635 -0.00047392401
1.0781758 0.27365765 -0.0004597026
1.0804722 0.26409072 -0.00076738687
1.0788478 0.25350398 -0.00078633329
1.0795728 0.24411707 0.0012070258
1.0812353 0.23740029 0.0033876584
1.0809945 0.22301953 -0.0031262573
1.0804045 0.21535408 -0.0032453088
1.0799934 0.20603307 -0.0022190681
1.080912 0.19729328 0.002091968
1.0800548 0.17445786 0.0014579933
1.0798105 0.1661986 0.0015186612
1.0818752 0.15920205 0.0025933639
1.0812353 0.13462496 0.0033876584
1.0812354 0.1264682 0.0033875541
1.0812354 0.11668006 0.0033875541
1.0688627 0.85136056 -0.0041799387
1.0688627 0.84483081 -0.0041799387
1.0691998 0.83528209 -0.003902101
1.0720257 0.82723266 -0.0021578276
1.0718436 0.81408399 -0.0015008892
1.070196 0.8048386 -0.0026401849
1.0714102 0.79597604 -0.0017265159
1.0728372 0.77507669 -0.0066204872
1.0706006 0.76461065 -0.0063754353
1.0721084 0.7555846 -0.0088037318
1.071246 0.74677253 -0.009139658
1.0692842 0.73415273 -0.0047121951
1.068252 0.72398502 -0.0053433185
1.068328 0.71492648 -0.0060865548
1.0686619 0.70465082 -0.0047854786
1.0708641 0.69491208 -0.0026549345
1.0717553 0.68485069 -0.0026742648
1.0716497 0.67498088 -0.0025413877
1.0725662 0.66807783 -0.0011248492
1.0733798 0.65474445 -0.0055864905
1.0726882 0.64416462 -0.008501783
1.0728147 0.63572788 -0.0086615644
1.0715729 0.62529099 -0.0050239116
1.0725662 0.35322645 -0.0011248492
1.0729889 0.34522483 -0.0016564318
1.0725662 0.31244257 -0.0011248492
1.0725662 0.30591717 -0.0011249535
1.0711212 0.29612902 -0.0018768249
1.0732002 0.28490067 -0.001922171
1.0725662 0.2765528 -0.0011248492
1.0585344 0.85117024 -0.0091803139
1.0586728 0.84476757 -0.0093589127
1.0593202 0.83699495 -0.0091470433
1.0638969 0.73006928 -0.0056373705
1.0605254 0.72354388 -0.0073921243
1.0583261 0.71391547 -0.0089128055
1.0610071 0.70478332 -0.0071415305
1.052338 0.84426403 -0.011654156
1.2418694 0.35489866 0.071218185
1.2364222 0.35383642 0.065564461
1.2214547 0.35395479 0.06510137
1.2168722 0.35650808 0.059495106
1.2085429 0.35874772 0.05124053
1.2097402 -0.45813102 0.049984757
1.1993062 0.35858896 0.047184136
1.1973317 -0.44957733 0.044653334
1.1904742 0.35807294 0.045029577
1.1702455 0.35763633 0.036566924
1.160363 0.64300013 0.033301767
1.1638038 0.35843018 0.029455997
1.1629457 -0.4399693 0.025627263
1.1545447 0.63971549 0.030273234
1.1561856 0.36212632 0.023611661
1.1559606 -0.43618238 0.023870099
1.1479832 0.63796198 0.01840267
1.1462954 0.36172572 0.020342357
1.1460727 -0.28661048 0.015717184
1.1460727 -0.29156694 0.015717184
1.1413487 -0.42835182 0.021149762
1.1477511 -0.43249965 0.021100314
1.1410099 0.63322091 0.014209294
1.136624 0.62991881 0.011926185
1.1359706 0.36116493 0.017598819
1.137293 -0.061917156 0.011147132
1.137293 -0.17922029 0.011147132
1.136624 -0.18570723 0.011926172
1.1380621 -0.20623299 0.01222402
1.1381987 -0.21544905 0.012558007
1.1378573 -0.22461779 0.011722734
1.137293 -0.23539363 0.011147132
1.1370699 -0.24525164 0.011406817
1.1380436 -0.25535142 0.013792569
1.1370863 -0.26405892 0.014904651
1.137309 -0.27589363 0.014086587
1.1388795 -0.28457993 0.014227695
1.1386572 -0.2944158 0.014487696
1.1390289 -0.30442536 0.014054808
1.137235 -0.31297114 0.014498941
1.1377926 -0.33514342 0.01384966
1.1385742 -0.34310701 0.012941508
1.137293 -0.3543489 0.011147132
1.136624 -0.36402047 0.011926185
1.136624 -0.37062472 0.011926185
1.1328326 -0.41528583 0.016341215
1.1345167 -0.42299551 0.019284595
1.1267847 0.362647 0.01356883
1.1285132 0.081820481 0.0065770647
1.1285132 0.075211853 0.0065770787
1.1278499 0.037188686 0.0073592504
1.1278501 0.014072724 0.0073591601
1.1282921 0.005819255 0.006837754
1.1282921 -0.0040900358 0.006837754
1.1295344 -0.013998058 0.0078602461
1.1286488 -0.023885122 0.008902356
1.1278737 -0.033760231 0.0098141981
1.1303327 -0.043695357 0.00940309
1.130406 -0.053600818 0.0093159825
1.1305537 -0.063513622 0.0091424147
1.130417 -0.074088678 0.008808109
1.1307758 -0.084990337 0.0088821165
1.130776 -0.095446981 0.0088821854
1.1290915 -0.10643163 0.0083812941
1.1296449 -0.11639974 0.0077297827
1.1296449 -0.12630941 0.0077297827
1.1295344 -0.13620365 0.0078602461
1.1302443 -0.14646883 0.0088872472
1.1296556 -0.15547089 0.0087822694
1.128071 -0.16592823 0.0070985476
1.1282499 -0.17583163 0.011231381
1.1292244 -0.1854194 0.010705008
1.1300375 -0.19546801 0.0097504742
1.1287073 -0.20509352 0.011312718
1.1289285 -0.21502905 0.011052125
1.1298891 -0.22513276 0.0099237114
1.130406 -0.23515047 0.0093157738
1.129594 -0.24485379 0.010271068
1.1277465 -0.25427914 0.012441035
1.1269331 -0.26394111 0.013395418
1.1272327 -0.27338171 0.013661062
1.1303638 -0.28053412 0.014304454
1.1263416 -0.29611287 0.014089831
1.1273763 -0.30464649 0.012874604
1.1274501 -0.31454217 0.012787933
1.1276715 -0.3244884 0.012527263
1.1289785 -0.33399311 0.011610482
1.1293715 -0.34372607 0.010531097
1.1296678 -0.35372221 0.010184263
1.1290872 -0.36417264 0.010370546
1.1302266 -0.37399894 0.010146434
1.1291529 -0.38322455 0.0078119454
1.1263578 -0.3947933 0.0091189304
1.1260567 -0.40491343 0.013189901
1.1265702 -0.41429159 0.015228755
1.1283625 -0.42121223 0.016644839
1.1216681 0.62145573 0.0047051148
1.1180446 0.61754555 0.0090194726
1.1196351 0.3638086 0.012102045
1.1197335 0.29329655 0.002007012
1.1190761 0.28649649 0.0027921204
1.1180899 0.25157461 0.0039698947
1.119972 0.24443568 0.0029766751
1.1197335 0.17434126 0.002007012
1.1197335 0.16442832 0.002007012
1.121246 0.14343822 0.0035458228
1.1211225 0.1344822 0.0053604697
1.1198242 0.12487925 0.0062818048
1.1174663 0.11443264 0.0072151381
1.116955 0.10519161 0.0073248865
1.1177613 0.094845146 0.0043624281
1.1207315 0.084580518 0.0052039875
1.1196595 0.074984059 0.0071042497
1.1198205 0.06627629 0.0052465936
1.1177613 0.058573611 0.0043624416
1.1200509 0.043242216 0.0032996612
1.1200241 0.035467293 0.0066675209
1.1189251 0.025550112 0.0079745753
1.1203172 0.015696406 0.0063192789
1.1207569 0.0058098831 0.0057963147
1.1203183 -0.0040812991 0.0063198432
1.1198052 -0.013963908 0.0069293519
1.1190717 -0.023830526 0.0078004282
1.1187053 -0.033695977 0.0082360432
1.1192915 -0.043595511 0.0075391694
1.120024 -0.053514142 0.0066676387
1.1197584 -0.064599194 0.0065293894
1.1209753 -0.07597436 0.0060353847
1.1199511 -0.086462826 0.0067549944
1.119658 -0.096321024 0.0071035698
1.1199508 -0.10623541 0.0067547602
1.1205366 -0.1161902 0.0060575772
1.1209024 -0.12612799 0.0056216051
1.120756 -0.13600285 0.0057959938
1.1219227 -0.14585389 0.0069043045
1.1217029 -0.15571044 0.0071657724
1.1222804 -0.16544934 0.008969374
1.1193969 -0.17568734 0.010399711
1.1179732 -0.18495396 0.0091075012
1.1188228 -0.19450378 0.008720004
1.1205169 -0.20460923 0.011057822
1.11841 -0.21498026 0.0092096524
1.1199499 -0.22486711 0.0067542158
1.1198772 -0.234734 0.0068417718
1.1183281 -0.24373582 0.0093079731
1.1196351 -0.25369731 0.012102045
1.1196351 -0.26355115 0.012102045
1.1196351 -0.29968181 0.012102045
1.1202965 -0.30645517 0.011318855
1.1196351 -0.3161048 0.012102045
1.1194037 -0.32694387 0.011136152
1.1179513 -0.33622855 0.0091318777
1.1188517 -0.34531152 0.0080616893
1.1193922 -0.35571402 0.0079170261
1.1193987 -0.36581534 0.0080332542
1.1227211 -0.37639582 0.0084473081
1.1196351 -0.38179696 0.012102045
1.1196351 -0.40314689 0.012102045
1.1096505 0.81264853 -0.00098666525
1.1096505 0.77139825 -0.00098666525
1.1099763 0.76670218 -0.0013807256
1.1083474 0.74071455 0.00058971049
1.1101691 0.73527163 0.00041080388
1.1109537 0.7294659 -0.0025630409
1.1109537 0.63033652 -0.0025630409
1.1125786 0.62242055 -0.0011535846
1.1121202 0.61506367 7.3338015e-05
1.1123593 0.36212632 0.00079905818
1.1112218 0.35564554 -0.00035677743
1.110895 0.34563068 3.6878162e-05
1.1129383 0.3359305 9.8297452e-05
1.1114724 0.32678297 -0.0011656624
1.1099763 0.30456024 -0.0013807256
1.1110662 0.29545265 0.0017230903
1.1109055 0.28582266 0.0025475717
1.1105289 0.27653831 0.0015641502
1.1080997 0.26506549 0.0021518499
1.1105759 0.25577009 0.0023133145
1.1116904 0.24575408 0.0021042067
1.1106204 0.23568878 0.0016318948
1.1072613 0.22635122 0.0019034798
1.1070442 0.20326863 0.0021661012
1.1122465 0.19219878 0.00092823373
1.115059 0.18393151 0.0025800758
1.1131513 0.17324355 0.0028647711
1.1120678 0.16412419 0.0011483412
1.1128651 0.15435562 0.00018529975
1.1122839 0.14436895 0.00088497461
1.1108156 0.13422336 0.0032837149
1.1089445 0.12415205 0.0049089123
1.1097653 0.11475684 0.0053540464
1.1086534 0.10439428 0.0052584158
1.1090989 0.094952345 0.0053494447
1.1101565 0.086826362 0.0067924461
1.1111262 0.07477916 0.0072971992
1.109672 0.064495243 0.0054665701
1.1102338 0.055601645 0.0047926069
1.1138175 0.04540528 0.0015580459
1.1122186 0.035397325 0.0059868931
1.1108359 0.024689484 0.006394566
1.1093445 0.015244886 0.0050543617
1.109859 0.006262782 0.0052417647
1.1115632 -0.0040699779 0.0067730197
1.1115632 -0.013930365 0.0067730197
1.1115632 -0.023790753 0.0067730197
1.1111262 -0.033636924 0.0072971992
1.1099992 -0.043507427 0.006146729
1.10882 -0.054054599 0.0045557828
1.1099291 -0.065389998 0.004180125
1.1116543 -0.07561975 0.0054113041
1.1109078 -0.089467019 0.0075592371
1.1126556 -0.096207701 0.0054628314
1.112874 -0.10610183 0.005200794
1.1128742 -0.11268418 0.0052006897
1.1109078 -0.24055889 0.0075592371
1.1109078 -0.33909708 0.0075592371
1.1092041 -0.34626749 0.0060282848
1.1092621 -0.35543573 0.005152538
1.1122186 -0.3625721 0.0059869071
1.10624 0.86135304 -0.0044530025
1.1055083 0.85557204 -0.004833845
1.0999137 0.84809786 -0.0043638074
1.1027184 0.82492715 -0.0060981973
1.1023171 0.81520522 -0.001196416
1.1016046 0.80422485 -0.0013418032
1.1012052 0.79641032 -0.0059462376
1.1020219 0.78268665 -0.0043938993
1.1004598 0.7750085 -0.0016368665
1.0997043 0.76815635 0.00097607123
1.1009983 0.74430656 0.0010858056
1.100208 0.73567611 0.0003615169
1.1018101 0.72535843 -0.0015917262
1.1029571 0.71535617 -0.0036251224
1.1013441 0.70512342 -0.003055536
1.1014202 0.69570392 -0.0017478322
1.1009511 0.68720984 -0.0046129911
1.1021739 0.67659694 -0.0071330941
1.1021739 0.66503179 -0.0071330941
1.1021739 0.65511882 -0.0071330941
1.1030481 0.64449334 -0.004799163
1.1031178 0.63547719 -0.0038234133
1.1034471 0.62597084 -0.003589445
1.1027986 0.61566597 -0.0027995401
1.1022946 0.60875744 -0.0021851934
1.1021804 0.360524 0.0030164432
1.1012156 0.35388914 0.00058154773
1.101001 0.34471199 -0.00060376636
1.1013604 0.33496538 -0.0010430822
1.1005689 0.32482636 -7.7013545e-05
1.1056757 0.31672311 -0.0024919854
1.1042945 0.30580398 -0.0020834871
1.1024271 0.29595006 0.0014537945
1.101536 0.26475364 0.0017792591
1.1005274 0.25523987 0.00060584181
1.1001369 0.24578108 0.0004494343
1.1006589 0.23631351 0.0012582217
1.1021804 0.22749746 0.0030164432
1.1041293 0.16048336 0.00064880005
1.1043459 0.15393661 0.00038562494
1.1017779 -0.057461537 0.0022433007
1.1025052 -0.064853542 0.0026218724
1.0960282 0.84231663 -0.0046952567
1.0937661 0.83330584 -0.0049708397
1.0944103 0.82571149 -0.0052557229
1.0943623 0.79432672 -0.0055624275
1.0923464 0.78559154 -0.0059070694
1.0914717 0.77513123 -0.0041861148
1.0905439 0.76781511 -0.0030406245
1.0914185 0.72452086 -0.0033906382
1.0921845 0.71560454 -0.0045543201
1.0908227 0.70546758 -0.0040230574
1.0923203 0.6957857 -0.002679697
1.0921525 0.6845594 -0.00456041
1.0948958 0.67560011 -0.0084162941
1.0950384 0.66580033 -0.0085928636
1.0945395 0.65556324 -0.0079755001
1.0928278 0.64452523 -0.0058601527
1.0924708 0.63441265 -0.005419598
1.0924708 0.62453902 -0.0054197023
1.0920433 0.61439389 -0.004890583
1.0947405 0.60767859 -0.0031108176
1.0934529 0.33424711 -0.0015263646
1.0841999 0.78410453 -0.0074700657
1.0847256 0.77438432 -0.0060691587
1.0847256 0.72183067 -0.0060691587
1.0835619 0.7146045 -0.0066748708
1.0847256 0.70704997 -0.0060691587
1.0863205 0.67532259 -0.0080572637
1.0863664 0.663993 -0.010175462
1.0862298 0.65520167 -0.0092319055
1.0853636 0.6434288 -0.0068644574
1.0844767 0.63346285 -0.0070441193
1.0823524 0.62452585 -0.0076802368
1.0839685 0.61576551 -0.0068389769
1.2551299 0.35347554 0.069101796
1.2470595 0.35324177 0.06602823
1.2346033 0.35300797 0.060671911
1.2289246 0.35247251 0.056306794
1.2302046 -0.46431249 0.056127559
1.2211939 0.35259482 0.051115353
1.2228034 -0.46283102 0.045510881
1.2134548 0.35659575 0.045154151
1.2037196 0.3577303 0.037831958
1.1926609 0.66689658 0.030948481
1.1937265 0.357337 0.034509376
1.1926609 -0.44923878 0.030948481
1.1867768 0.66357476 0.027885629
1.1846825 0.35725841 0.030177472
1.1855501 -0.44581357 0.030178202
1.176796 0.357573 0.024569342
1.1763951 -0.43753916 0.024060057
1.1777679 -0.44293767 0.028269388
1.166182 0.3612881 0.017165625
1.1688948 0.35788763 0.018953282
1.166182 -0.42930779 0.017165625
1.1681902 -0.43494126 0.022156579
1.1697462 -0.44099045 0.025221244
1.1612048 0.64753419 0.013071588
1.1596185 0.36104998 0.014876343
1.159771 -0.075011931 0.013076869
1.1608281 -0.083880544 0.013501994
1.1605265 -0.093441144 0.013235534
1.1608288 -0.10382102 0.013502234
1.1593614 -0.11324854 0.013776338
1.1566771 -0.12029812 0.013345359
1.1594497 -0.15462983 0.011406499
1.1597558 -0.16309056 0.011791349
1.1589414 -0.21413839 0.012720187
1.1594844 -0.22289512 0.012100942
1.1580344 -0.23347354 0.011797247
1.1587132 -0.24194288 0.011023139
1.1573557 -0.28979087 0.012571341
1.158186 -0.29721612 0.014882416
1.1593184 -0.30529347 0.01359288
1.1587132 -0.33507681 0.011023139
1.1587132 -0.34339228 0.011023139
1.1587132 -0.35004473 0.011023139
1.1576951 -0.36797461 0.012184339
1.1610477 -0.37576598 0.013252948
1.1606236 -0.38608548 0.012339654
1.1587132 -0.39328548 0.011023139
1.1587132 -0.40991655 0.011023139
1.1592125 -0.41695911 0.012410431
1.1599008 -0.42525265 0.015164384
1.1589179 -0.43082345 0.020524623
1.1557673 0.64449239 0.0094896965
1.1499019 0.36021638 0.013764492
1.1480808 0.22499482 0.0084951958
1.1478566 0.21830535 0.0087541016
1.1498753 0.014175376 0.0064227995
1.1498753 0.0091860592 0.0064227995
1.1492659 -0.024876451 0.0083604306
1.150107 -0.033207413 0.0073890304
1.1504916 -0.065012872 0.0089982655
1.1505731 -0.073806167 0.010543857
1.1499736 -0.083714262 0.011233981
1.1501232 -0.093679152 0.011061218
1.1498982 -0.10360797 0.011319988
1.1493731 -0.1135003 0.011923542
1.1486819 -0.12406021 0.012227387
1.1503218 -0.13388231 0.011446578
1.1510991 -0.14357768 0.0099407434
1.1508733 -0.15350552 0.010198969
1.1515474 -0.163574 0.0094227167
1.1513904 -0.17257166 0.0079629589
1.1490977 -0.19674498 0.0085546961
1.1514785 -0.205541 0.011605858
1.1506914 -0.21623476 0.012860294
1.1508043 -0.22620253 0.012731057
1.150804 -0.2361483 0.012730892
1.1511641 -0.24558505 0.011828667
1.1517061 -0.25570664 0.011697236
1.1496181 -0.26522443 0.011643909
1.1473049 -0.27577448 0.011849084
1.1501284 -0.2846472 0.014727971
1.1493164 -0.29596335 0.014925309
1.1497898 -0.30545819 0.01389401
1.1512885 -0.31582671 0.0087366644
1.1510118 -0.3249906 0.0075781536
1.1530057 -0.3349438 0.0087287808
1.1524099 -0.34676856 0.0098358253
1.1515882 -0.35572448 0.0099918926
1.1514795 -0.36566889 0.011955195
1.1499734 -0.37560794 0.011233857
1.1510229 -0.38595501 0.010026524
1.1519227 -0.39626428 0.008991845
1.1519976 -0.40626267 0.008905258
1.1505727 -0.41565382 0.010543741
1.1500702 -0.42479086 0.013570241
1.1526046 -0.43063331 0.017989788
1.1410373 0.7110166 0.0018224602
1.1436987 0.36009729 0.011099327
1.1388749 0.3559266 0.0063336212
1.1410373 0.3484596 0.0018224602
1.1410373 0.32184991 0.0018224602
1.1401479 0.31492078 0.0028626379
1.140815 0.30515113 0.002082475
1.1410373 0.29856643 0.0018224602
1.1410373 0.27361983 0.0018224602
1.1410373 0.2653043 0.0018224602
1.1405927 0.25521433 0.0023425038
1.1401479 0.24513388 0.0028625336
1.1414424 0.23445041 0.0056972196
1.1411594 0.22476353 0.0066458802
1.1408619 0.21474935 0.0069921166
1.1393484 0.20710246 0.0054528103
1.1403702 0.18202911 0.0026026228
1.1403702 0.17538106 0.0026026366
1.1405927 0.16544461 0.0023425038
1.141607 0.13472876 0.0024008276
1.1421767 0.1255621 0.002979314
1.1418155 0.11624439 0.0029038955
1.1403702 0.10557663 0.0026026366
1.1402133 0.094816431 0.0047756019
1.1415108 0.085863844 0.0068602473
1.1421789 0.075132512 0.0060805939
1.141843 0.065687642 0.0033690606
1.1415486 0.055051506 0.0032159996
1.1411752 0.045714114 0.0041491156
1.141843 0.035771452 0.0033691649
1.1424741 0.02532557 0.0036976633
1.142647 0.015818113 0.0049150088
1.1422018 0.0058500483 0.0054349224
1.1401922 -0.00409977 0.0077709309
1.1404743 -0.014695068 0.0094208168
1.1418836 -0.023992613 0.0082755238
1.1412582 -0.033537682 0.0071514333
1.1428795 -0.043123685 0.0058817016
1.1417083 -0.054679662 0.007244803
1.1423391 -0.064574435 0.0089822821
1.1403209 -0.073595516 0.010092659
1.1404318 -0.083533347 0.0099624787
1.1404318 -0.093462728 0.0099624787
1.1401745 -0.10433255 0.0099090952
1.1406889 -0.11569078 0.010015966
1.1404318 -0.12656061 0.0099624787
1.1406554 -0.13652043 0.0097031379
1.1407672 -0.14646776 0.0095734401
1.1402358 -0.15647011 0.0085451948
1.1410109 -0.16550888 0.0068193274
1.1430703 -0.17398508 0.0060749049
1.1469294 -0.18040797 0.0048893578
1.1410733 -0.19519888 0.0095716314
1.1435916 -0.20506558 0.012452718
1.143819 -0.2157106 0.013416798
1.1429168 -0.22635162 0.01249607
1.1428034 -0.23565398 0.012136389
1.1426913 -0.24555039 0.01226588
1.1441555 -0.25381887 0.013028177
1.1438191 -0.26530814 0.013416708
1.142539 -0.27430704 0.011622992
1.1455873 -0.31968734 0.0064456374
1.1442288 -0.32636616 0.0055504763
1.1455873 -0.33297467 0.0064456374
1.1426913 -0.34643161 0.012265997
1.1422946 -0.35564575 0.011495911
1.1428034 -0.36466452 0.012136389
1.1406581 -0.37543255 0.010193055
1.1414369 -0.38510659 0.0087946393
1.1407886 -0.39536545 0.0070792381
1.1417538 -0.40569809 0.005953378
1.1431754 -0.41450441 0.0080084829
1.1433632 -0.42278719 0.011488367
1.1321994 0.86734855 -0.0027778791
1.1312598 0.85490018 0.00034059529
1.1295543 0.84847724 0.00035477665
1.1321994 0.79583502 -0.0027778791
1.1321994 0.75425732 -0.0027778791
1.1332397 0.71382236 -0.00010694997
1.1339256 0.70457405 -0.0012352446
1.1315382 0.69559038 -0.001994703
1.1304651 0.68507969 0.0012797543
1.1310199 0.67497849 0.0036229168
1.1313158 0.66523582 0.0032758904
1.1292099 0.65740764 0.0024301815
1.1315382 0.64074403 -0.001994703
1.132813 0.63333929 0.0025018707
1.130501 0.62827879 0.0042295028
1.1291764 0.3629275 0.005794893
1.1318433 0.355342 0.0038950548
1.1338205 0.34467795 0.00032091874
1.1342628 0.33486098 -0.00020055012
1.1335262 0.32465354 0.00066854252
1.1331571 0.31457496 0.0011026755
1.1337464 0.30479443 0.00040738552
1.1338202 0.29485145 0.0003205805
1.133968 0.28492796 0.00014702663
1.1338202 0.27492046 0.0003205805
1.1338202 0.26495501 0.00032059426
1.1334516 0.25489682 0.00075496116
1.1321256 0.24461198 0.0023195811
1.1314615 0.23450786 0.0031012082
1.1309459 0.22445051 0.0037095968
1.1307983 0.21448125 0.0038831714
1.1320513 0.20479967 0.0024062197
1.1317974 0.1950893 0.00020710927
1.1322007 0.18493377 0.002233346
1.1322817 0.17534752 0.0027608473
1.1326342 0.16486491 0.0042126286
1.1303461 0.15487342 0.0035851493
1.1338923 0.14444332 0.0014853755
1.1340752 0.13523956 0.0025199491
1.1338083 0.12485846 0.0017637778
1.133157 0.11539646 0.0011027935
1.1327883 0.10539963 0.0015372509
1.1316166 0.095713034 0.0035419378
1.1321712 0.085228942 0.0064141955
1.1333364 0.07612516 0.0071146782
1.1326123 0.065127097 0.0023692143
1.1323466 0.055598531 0.0020588781
1.1319493 0.046026543 0.0031515239
1.1345314 0.034866232 0.0032272672
1.134737 0.025769688 0.0017371937
1.1328694 0.016597463 0.0051806499
1.1321049 0.0058251289 0.0073193577
1.1337916 -0.0040949201 0.007821314
1.1350334 -0.014013891 0.0088437181
1.1352559 -0.023939416 0.0085834945
1.1357006 -0.037184026 0.0080634644
1.1350335 -0.099982977 0.0088436138
1.1350334 -0.10659599 0.0088437181
1.1350334 -0.11651549 0.0088437181
1.1350334 -0.126435 0.0088437181
1.1350334 -0.13635452 0.0088437181
1.1350335 -0.14296752 0.0088436138
1.1350335 -0.15619354 0.0088436138
1.1329918 -0.16625972 0.0062777135
1.134635 -0.3852967 0.0080723893
1.1323267 -0.39434877 0.0070588039
1.1237897 0.86350173 -0.0028336996
1.1227292 0.85429692 -0.0015694514
1.1232405 0.84478742 -0.0021800841
1.1222087 0.83520746 -0.0034687554
1.1210674 0.82718503 -0.0046266289
1.1260263 0.80392361 -0.0055080201
1.1251581 0.79491782 -0.0044702338
1.1224405 0.78652525 -0.0042499388
1.1220505 0.77983886 -0.0058057974
1.1249974 0.76287645 -0.0059629469
1.1261014 0.75423813 -0.00496548
1.1249977 0.7468037 -0.0059627821
1.1233616 0.73097384 -0.0073782182
1.1225659 0.72335875 -0.0023809583
1.1241701 0.71525592 -0.0027860948
1.1247011 0.70544398 -0.0039250953
1.1235583 0.69563234 -0.0031890792
1.1222906 0.68496728 -0.0010461742
1.1217057 0.67463118 -0.000348537
1.1218516 0.66479576 -0.00052321341
1.1231176 0.65483707 -0.0015303134
1.1233947 0.64575046 -0.002992406
1.1225103 0.63541484 -0.001307752
1.1220297 0.62678915 0.00027088643
1.1233193 0.36292753 0.0027462773
1.122772 0.35497853 0.00020652382
1.1239544 0.34450337 -0.0015937921
1.124051 0.33390477 -0.00063089665
1.1219997 0.32377249 -0.00069654715
1.1224377 0.31397524 -0.0012204057
1.1230217 0.30421418 -0.0019181565
1.1255523 0.29519603 -0.0011645849
1.1247292 0.28335238 -0.00018394545
1.1234605 0.27449691 -0.0024415459
1.1238977 0.2646639 -0.0029654976
1.1253871 0.25535825 -0.00096891169
1.123649 0.24231979 0.0023541204
1.1227336 0.23418009 0.00093807728
1.121268 0.22425216 0.00017523674
1.1212678 0.21432346 0.00017512665
1.1219985 0.20454568 -0.00069733948
1.1222376 0.19500029 -0.00035347359
1.1222948 0.18445808 0.0014611619
1.1243817 0.17368795 0.0027353538
1.1251142 0.16459177 0.0031167958
1.1228597 0.15514897 0.0018626313
1.1257126 0.14696722 0.0032402654
1.1252974 0.10191581 0.00039366508
1.1247113 0.094337627 0.0023434204
1.1262479 0.088487715 0.0042705331
1.1239787 0.06207677 0.0019619784
1.1230706 0.054812331 0.0010384043
1.1234843 0.046337876 0.0025501468
1.1146462 0.86205751 -0.003647361
1.1136998 0.85395974 -0.003710578
1.113137 0.84459341 -0.0057105683
1.1138505 0.83435035 -0.0060657165
1.1137011 0.82487875 -0.0051593343
1.1168232 0.81497109 -0.0055956454
1.1145391 0.80508131 -0.0068973177
1.1147919 0.79533988 -0.007204134
1.1139957 0.78475559 -0.0062407656
1.1157776 0.77370018 -0.0043360987
1.1171497 0.76451111 -0.0075113326
1.1175288 0.75650328 -0.0079715848
1.1176933 0.74850553 -0.0073221661
1.1151873 0.732086 -0.0026140385
1.113723 0.72381538 -0.0033763228
1.1145933 0.71451849 -0.0044266018
1.1141735 0.70548332 -0.0058192015
1.1138405 0.69409037 -0.0046036378
1.1124747 0.68426204 -0.0044019027
1.112692 0.67448246 -0.004664734
1.1128367 0.66464919 -0.0048398701
1.1130542 0.65486234 -0.0051024719
1.1137471 0.64530659 -0.0044912323
1.1138853 0.6350584 -0.0030665291
1.115998 0.62579453 -0.0010647409
1.1174623 0.35796773 -0.00030254715
1.1174623 0.34308848 -0.00030254715
1.115998 0.32655597 -0.0010647409
1.1133146 0.31506097 -0.0028843279
1.1151874 0.30526572 -0.0026141428
1.1158408 0.27070346 -0.003401289
1.1158408 0.26739258 -0.003401289
1.1174623 0.23232061 -0.00030254715
1.1138016 0.22322771 -0.002208011
1.1133959 0.21420503 -0.0029828323
1.1144547 0.20517775 -0.0029954806
1.115998 0.19429582 -0.0010647409
1.1086768 0.85394323 -0.0048756413
1.1049688 0.84410393 -0.0086376537
1.1044399 0.83598089 -0.0088848704
1.1060721 0.82776576 -0.0067950808
1.1070436 0.80044472 -0.007980424
1.1063888 0.79358083 -0.0092231603
1.1076913 0.78772181 -0.0087706866
1.1086768 0.71176362 -0.0048756413
1.1086768 0.69357783 -0.0048756413
1.1057482 0.6836583 -0.0063998969
1.1057482 0.67373878 -0.0063998969
1.1061801 0.66411167 -0.0069268639
1.1059642 0.65404487 -0.0066634919
1.1086768 0.64398026 -0.0048756413
1.261975 0.35197452 0.056881674
1.2542241 0.3522931 0.052847128
1.2443008 0.35239676 0.048527468
1.2433723 -0.46861172 0.047198575
1.2485565 -0.47164395 0.05102443
1.236513 0.35107061 0.042782668
1.2315341 -0.46527016 0.041036516
1.2262907 0.35577577 0.034925092
1.2188772 0.3574498 0.031066328
1.2148979 -0.45676386 0.032940585
1.2197853 -0.4607178 0.039430529
1.2099812 0.67719418 0.026435614
1.2099811 0.3574498 0.026435718
1.2085655 -0.45220014 0.027953545
1.2003829 0.35721603 0.022566972
1.1991534 -0.44612598 0.023899982
1.2009536 -0.45086753 0.029064408
1.1914927 0.35721603 0.017939361
1.1885293 -0.42907485 0.016396837
1.190652 -0.43562374 0.018065413
1.1909665 -0.44267765 0.023302281
1.1862582 0.66212767 0.014087277
1.1770794 0.65490186 0.019455867
1.1832927 0.3574498 0.012543826
1.1803274 -0.027582658 0.011000195
1.1803274 -0.10458914 0.011000299
1.1803274 -0.11128537 0.011000195
1.1803274 -0.12802592 0.011000195
1.1815805 -0.13469239 0.012028383
1.1811005 -0.14404002 0.012079002
1.1803274 -0.15481079 0.011000299
1.1813759 -0.16550273 0.011771461
1.1811005 -0.17416117 0.012079002
1.1803274 -0.18159565 0.011000195
1.1803274 -0.26697242 0.011000195
1.1803274 -0.2753427 0.011000299
1.1803274 -0.28538701 0.011000299
1.1798685 -0.2953018 0.011512939
1.1791799 -0.30514121 0.012281985
1.1814568 -0.31549972 0.013983696
1.181165 -0.3246915 0.013529986
1.1806273 -0.33315849 0.012283881
1.1803274 -0.35904539 0.011000195
1.179639 -0.36382943 0.011769239
1.1792947 -0.38377988 0.012153828
1.1822678 -0.42578381 0.015617807
1.1820674 -0.43390018 0.017768191
1.170066 0.36032596 0.0079137404
1.1741692 0.3573719 0.0081703374
1.17109 0.084551856 0.0067555527
1.1707486 0.07950478 0.0071416404
1.1707486 0.04604559 0.0071416404
1.1712039 0.036022816 0.006626782
1.1714312 0.0058984254 0.0063696592
1.1714312 -0.0041458998 0.0063696592
1.1714901 -0.015016329 0.0075274282
1.1737766 -0.023722285 0.010006218
1.1731793 -0.034222823 0.010097726
1.1718891 -0.044281181 0.0082989
1.172002 -0.053522158 0.0069483281
1.1725712 -0.084350206 0.0099692484
1.1729811 -0.094979033 0.011460395
1.1745093 -0.10445308 0.010226536
1.1746575 -0.11504721 0.0090151336
1.1734852 -0.12456833 0.0089418255
1.1736786 -0.13404274 0.010116202
1.173595 -0.14445122 0.011253633
1.1741667 -0.15455838 0.010611949
1.1740522 -0.1645665 0.01074018
1.1732523 -0.17446131 0.011639073
1.1739386 -0.18398558 0.010380429
1.1740544 -0.19325136 0.0082985992
1.1718898 -0.20483053 0.0082992576
1.1741687 -0.21437772 0.0095661236
1.1745102 -0.22482657 0.010227058
1.1734821 -0.23462635 0.011382925
1.1738248 -0.24473004 0.010997498
1.1744876 -0.25565654 0.0097642103
1.1745093 -0.26495132 0.010226536
1.1739726 -0.27548593 0.0097860629
1.1730288 -0.28501371 0.0094559481
1.1729525 -0.29502317 0.0095414724
1.1731379 -0.30467466 0.011767305
1.1727949 -0.31459138 0.01215254
1.1727949 -0.32460615 0.01215254
1.172453 -0.33451116 0.012538208
1.1730275 -0.34520376 0.0094551546
1.1746234 -0.3552697 0.01009793
1.1741661 -0.36514357 0.010611396
1.1714246 -0.37418517 0.013693938
1.1701673 -0.38372779 0.015106415
1.1699471 -0.39252639 0.012924864
1.1721455 -0.41539764 0.013693373
1.1727111 -0.4241184 0.014676721
1.1736892 -0.43058127 0.016000153
1.1652845 0.36020797 0.0059884568
1.1633153 0.33321232 0.0028213838
1.1631074 0.32475224 0.0023184593
1.1625352 0.31727251 0.0017389292
1.1611816 0.2934514 0.0032891696
1.1634032 0.28509152 0.0044455668
1.1625352 0.23189574 0.0017389292
1.1637721 0.22407813 0.0032848404
1.160956 0.21649909 0.0035475194
1.1617532 0.20564359 0.0038685552
1.1631147 0.19656867 0.0035439243
1.1605048 0.18632996 0.0040641921
1.1615835 0.16549982 0.0040620496
1.1622806 0.15692441 0.0049884953
1.1643783 0.14615238 0.0070196739
1.1640384 0.13608752 0.00740672
1.1646988 0.12575059 0.0056031495
1.1632279 0.11629683 0.0034148095
1.1630639 0.10700428 0.0048325686
1.1650541 0.095349565 0.0050229686
1.1653979 0.08612176 0.005859626
1.164649 0.076727487 0.0062213168
1.1618583 0.066118911 0.002514042
1.1642292 0.055415042 0.0037479566
1.1652845 0.046000391 0.005988366
1.1652845 0.035972487 0.005988366
1.1649448 0.025936818 0.0063752942
1.1643788 0.015902415 0.0070202132
1.1650581 0.0058871298 0.0062465528
1.1652845 -0.0041391212 0.0059883525
1.1647179 -0.014158194 0.0066329422
1.1647792 -0.024574153 0.0084029287
1.1648643 -0.033755515 0.0083062463
1.1648314 -0.04423213 0.0065040202
1.1649899 -0.0547744 0.0052716713
1.1652038 -0.063248128 0.0044433465
1.1652877 -0.097316712 0.01331804
1.1687008 -0.11433358 0.0094578071
1.1640176 -0.12495339 0.0079219798
1.1640149 -0.13461006 0.009273353
1.1635518 -0.14408192 0.010410393
1.1647907 -0.15333422 0.011932077
1.1650628 -0.16479769 0.012355436
1.1633246 -0.17403588 0.010667717
1.164459 -0.18423168 0.0093792882
1.1646106 -0.19426543 0.0092079518
1.1626797 -0.20418312 0.0089542624
1.1668055 -0.21432506 0.0099742897
1.1650628 -0.22473846 0.012355331
1.1641551 -0.23385805 0.012164722
1.1639616 -0.24442606 0.011339376
1.164308 -0.25423452 0.009551296
1.1649884 -0.26441175 0.0087780822
1.1647791 -0.27404791 0.0084029147
1.1640385 -0.2845782 0.0074066157
1.1660836 -0.29308429 0.0075316997
1.1659704 -0.30720794 0.012545954
1.1638162 -0.31441498 0.010720014
1.1634756 -0.32400212 0.010495736
1.1636695 -0.33331385 0.011670277
1.1642689 -0.34376943 0.012036161
1.1639874 -0.35445663 0.010527172
1.1639874 -0.3636204 0.010527172
1.1652877 -0.37024558 0.01331804
1.1652877 -0.38688758 0.01331804
1.16355 -0.39474049 0.012037744
1.1626432 -0.40364733 0.011440172
1.1643816 -0.41295749 0.012395395
1.1652877 -0.42017159 0.01331804
1.1536391 0.82283688 -0.0028916963
1.1536391 0.81781471 -0.0028916963
1.1522971 0.7716046 -0.0013354014
1.1537094 0.76541752 -0.0017276778
1.1522971 0.70138627 -0.0013354014
1.1531917 0.69530469 -0.002372897
1.1542606 0.6462968 0.00036293888
1.1545438 0.35614482 0.0038602897
1.1570772 0.34371927 0.00058912474
1.1558549 0.33431146 0.0016438058
1.15674 0.32354417 0.00097722805
1.1570767 0.31361642 0.00058899511
1.1564034 0.30505505 0.0013656468
1.1544937 0.29614761 0.0035659664
1.1557429 0.28575966 0.003981181
1.1559719 0.27612936 0.0043351618
1.1542891 0.26546997 0.0033090843
1.1566281 0.25496829 0.0011070021
1.1566734 0.24429043 -0.00018498329
1.1564714 0.2349878 0.00046151117
1.1582201 0.22490494 0.0017476506
1.1555543 0.2155662 0.0028401427
1.1557289 0.20631158 0.0021420117
1.1555043 0.19624807 0.0024008432
1.1546057 0.18606615 0.0034363286
1.1540445 0.17595802 0.0040834346
1.1551672 0.16613507 0.0027890566
1.1557369 0.15563278 0.0031929766
1.1558967 0.14599797 0.0044213831
1.1554471 0.13592944 0.0049390681
1.1552373 0.12636141 0.0045634657
1.1549432 0.11603078 0.0030482186
1.1558272 0.10557678 0.0038842314
1.156122 0.095975697 0.004162923
1.1555228 0.085915051 0.004853067
1.1549982 0.075870395 0.0054567507
1.1550558 0.065967456 0.0029188779
1.155545 0.055471532 0.0034151673
1.1554476 0.045892056 0.0049392744
1.1554471 0.035887148 0.0049389363
1.1549977 0.025872611 0.0054566208
