# .PCD v0.7 - Point Cloud Data file format
VERSION 0.7
FIELDS x y z
SIZE 4 4 4
TYPE F F F
COUNT 1 1 1
WIDTH 1455
HEIGHT 1
VIEWPOINT 0 0 0 1 0 0 0
POINTS 1455
DATA ascii
0.1753642 0.38471588 0.3076115
0.1738558 0.37598014 0.30868539
0.17731676 0.36570668 0.31075728
0.17503144 0.3533136 0.30877858
0.17434368 0.34757781 0.30671775
0.16796713 0.34652856 0.30170321
0.15094063 0.38497636 0.29702795
0.73563653 0.42382184 0.58502847
0.72720468 0.43298963 0.58238983
0.73129332 0.42726403 0.58154303
0.72194898 0.43645158 0.57750911
0.72648752 0.42998743 0.57519299
0.71010846 0.45284805 0.57167
0.71313769 0.44607309 0.57204896
0.71507061 0.43964672 0.5771417
0.69844973 0.46066222 0.56736284
0.70391279 0.45590353 0.56788743
0.70901531 0.44971478 0.56609827
0.69529307 0.46254215 0.56504333
0.69897318 0.45878842 0.56425327
0.68613267 0.46250972 0.56433362
0.67377341 0.44751838 0.55226356
0.67140245 0.44751838 0.55102944
0.22376363 0.37080541 0.31351408
0.22584438 0.36532801 0.3148421
0.21414408 0.39366466 0.31149864
0.21435702 0.38591513 0.30981138
0.21563946 0.37396786 0.30934769
0.21725933 0.36461151 0.3109481
0.21381009 0.35814172 0.30861482
0.20880099 0.3948769 0.31333536
0.20674279 0.38456261 0.31170699
0.20686737 0.3753137 0.30827042
0.20708323 0.36475143 0.30860016
0.20648831 0.35500753 0.30874205
0.20217805 0.34852648 0.31054559
0.19826069 0.38480005 0.31038526
0.19883403 0.37469852 0.30991241
0.19977523 0.36609745 0.30953401
0.19970533 0.35456818 0.31113744
0.19914424 0.34810692 0.31084538
0.18449946 0.34893474 0.29871297
0.1813421 0.34893474 0.29706949
0.16896433 0.35107806 0.28498983
0.16541576 0.34409696 0.29216158
0.16732755 0.34885821 0.28526518
0.73830938 0.42158532 0.57931721
0.74199033 0.41529399 0.5761376
0.7331236 0.4230324 0.57451355
0.73787743 0.41827375 0.57343519
0.71962774 0.44065613 0.56993121
0.7233128 0.43322837 0.56858009
0.72768813 0.42683184 0.56936121
0.71492898 0.44321045 0.56512636
0.71825236 0.43628541 0.56259203
0.70437181 0.46260211 0.55578977
0.7059117 0.45377445 0.56002969
0.70979625 0.44634148 0.55813009
0.71334738 0.43860346 0.55764323
0.69842738 0.47154343 0.54931343
0.70188624 0.46496382 0.55319047
0.70064223 0.45429131 0.55492663
0.69990253 0.44857535 0.5531165
0.68699479 0.46418852 0.54899931
0.68459767 0.4646396 0.54775161
0.67673922 0.45010903 0.54478842
0.67699724 0.44721743 0.54717749
0.24572015 0.40185547 0.31460878
0.24688493 0.39478031 0.31605762
0.24572654 0.38559824 0.31455842
0.2457667 0.3751066 0.31425726
0.24549091 0.36601105 0.31417626
0.24503361 0.35808766 0.31331193
0.23850116 0.40475544 0.31239197
0.23754966 0.39441663 0.31530368
0.23789451 0.38482976 0.31526232
0.23812339 0.37515917 0.31487718
0.23777002 0.36479497 0.31500667
0.23899093 0.35517088 0.31271133
0.23795275 0.34578851 0.31117627
0.23525701 0.33861813 0.3093504
0.23010939 0.41344884 0.30716124
0.22948873 0.40468004 0.30899134
0.22828181 0.39498985 0.31135651
0.22694631 0.38473684 0.31338057
0.22737156 0.37541708 0.31349996
0.22896743 0.363419 0.31500873
0.22891611 0.35547388 0.31129065
0.22910303 0.34464753 0.31106362
0.23010117 0.33746916 0.30768669
0.22298269 0.41329554 0.30390069
0.22036842 0.40429077 0.30682191
0.22028454 0.39617574 0.30997446
0.21958701 0.38436592 0.31021282
0.21933715 0.37613186 0.31008264
0.22070028 0.36048466 0.31079215
0.21930559 0.35468251 0.30810991
0.21946935 0.34477487 0.30651888
0.21921849 0.33567771 0.30505222
0.2173757 0.32785225 0.3022975
0.20956804 0.40178308 0.30499759
0.2116967 0.35176283 0.30542913
0.21056254 0.34590691 0.3033039
0.2136122 0.33451197 0.30293146
0.21495497 0.32688081 0.30122533
0.20098089 0.35047883 0.29849848
0.20334427 0.34855199 0.30006695
0.19454126 0.35013762 0.29604855
0.74480653 0.41087908 0.57187653
0.74832636 0.40531969 0.56794393
0.75338024 0.39959273 0.56777138
0.73496622 0.42159465 0.5657022
0.73815894 0.4144181 0.56536955
0.74129343 0.40673974 0.56298286
0.72514266 0.43017578 0.56040096
0.73029482 0.42473227 0.55916923
0.73457783 0.41697094 0.5594191
0.72024179 0.432313 0.5551725
0.72404474 0.42857382 0.55302191
0.70988512 0.44273242 0.55112398
0.71513867 0.43636188 0.55007547
0.71832901 0.42946461 0.54839909
0.69945902 0.47057807 0.54815942
0.700194 0.46515313 0.54718244
0.70039111 0.45566264 0.54526246
0.70444989 0.44644186 0.54695863
0.69151765 0.47402221 0.54007995
0.69534296 0.46361053 0.54216516
0.6961723 0.45625657 0.54001492
0.68605363 0.47493967 0.53424597
0.68518806 0.4630149 0.5376308
0.68676192 0.45483622 0.53581393
0.68195909 0.47295731 0.52974957
0.68045098 0.46603391 0.53222591
0.25857499 0.37045363 0.3096506
0.25976461 0.36479262 0.31145972
0.25932136 0.3562381 0.31052229
0.25827795 0.34162 0.30968386
0.25857499 0.33924001 0.3096506
0.24988496 0.40531513 0.30944881
0.25107738 0.39335468 0.31533051
0.25197393 0.38514039 0.31161666
0.25196612 0.37506613 0.31188768
0.25164765 0.36484745 0.31148151
0.25082731 0.35457766 0.31150055
0.25149044 0.34494418 0.30917609
0.25284076 0.33755034 0.306988
0.24143346 0.42069411 0.30129173
0.24200952 0.41493064 0.30481991
0.24574114 0.4086428 0.30804345
0.24308372 0.34352806 0.30855611
0.24266683 0.33554497 0.30412924
0.24086811 0.32826796 0.30118531
0.23551679 0.41577029 0.30723089
0.2336656 0.33273649 0.30324391
0.23427732 0.32641861 0.29903227
0.21945643 0.41411981 0.29849538
0.22541566 0.3341842 0.29474953
0.22811945 0.32699075 0.29508629
0.21506281 0.41266394 0.29271898
0.21493869 0.40892413 0.29276165
0.22071728 0.3316465 0.28960654
0.20567636 0.35371771 0.28267938
0.19228691 0.35525534 0.28134665
0.75845706 0.40202957 0.56026769
0.75562012 0.39918169 0.56555516
0.75122797 0.40385634 0.55875957
0.7411108 0.41364563 0.55011123
0.74106491 0.40704378 0.55609995
0.73125893 0.4222402 0.55174726
0.73579502 0.4167152 0.55022526
0.72568679 0.42385316 0.5472222
0.72962147 0.41827971 0.54438132
0.71216249 0.44166735 0.54265273
0.71483368 0.43525171 0.54195756
0.71893477 0.42790204 0.54512733
0.70671237 0.48270935 0.53333342
0.70643854 0.47745433 0.53319097
0.70809698 0.45294011 0.53278589
0.71042663 0.44463095 0.53590393
0.71310908 0.43899196 0.53694487
0.70293421 0.48289484 0.53136683
0.70424837 0.47899994 0.53205085
0.70560962 0.4587515 0.53050476
0.68996722 0.46897647 0.52236253
0.68071842 0.48158675 0.52248055
0.68103719 0.47454676 0.52342355
0.67829007 0.48299485 0.51797539
0.6783551 0.47655302 0.51789635
0.26144847 0.39229158 0.30419427
0.26103342 0.38440126 0.30732262
0.26150963 0.37594336 0.30766591
0.26553315 0.36550784 0.30288464
0.26357025 0.35405141 0.30843771
0.26377332 0.34506249 0.30699101
0.26454467 0.33650884 0.30403227
0.25522992 0.4137893 0.30006501
0.25819534 0.40544614 0.29903746
0.25779057 0.39539868 0.30223662
0.25777385 0.38506588 0.30716681
0.25740442 0.37718216 0.30689928
0.257994 0.34812409 0.30765718
0.25566924 0.33364388 0.30314842
0.25266334 0.32978922 0.30206403
0.24781205 0.41618112 0.30235726
0.24744061 0.33166808 0.30188209
0.24751332 0.32910419 0.30135623
0.22091107 0.33110034 0.2844089
0.21812968 0.32936814 0.28352481
0.21554841 0.33155015 0.27767172
0.20109403 0.3566274 0.27646118
0.76226091 0.401133 0.55773824
0.76315325 0.39440829 0.55574894
0.76558906 0.38810483 0.55402166
0.75633335 0.40302619 0.55235118
0.75876701 0.39702478 0.55042374
0.74452001 0.41140184 0.54700059
0.74963903 0.40539661 0.54520512
0.75370085 0.39902803 0.54482734
0.7387554 0.41282585 0.54212099
0.74211437 0.40700823 0.54048735
0.72880024 0.42294803 0.53552979
0.73453039 0.41692764 0.53847247
0.72017395 0.43319717 0.53250277
0.72409189 0.42653409 0.5319885
0.70721292 0.45271075 0.52936637
0.71095741 0.44404337 0.52765155
0.71564597 0.43794873 0.52649862
0.7033447 0.45546362 0.52571023
0.70502347 0.44580424 0.52309376
0.70908445 0.43970215 0.52103984
0.69178641 0.47179428 0.51692098
0.69389349 0.4668144 0.51682222
0.69663638 0.45585787 0.52086049
0.69785488 0.44908318 0.52195883
0.68612176 0.47192809 0.51528782
0.68946159 0.46904072 0.51495939
0.67993015 0.49048874 0.50586432
0.68127739 0.48536253 0.50741124
0.68044716 0.47675148 0.5099988
0.26613894 0.33272505 0.30062312
0.26176652 0.33229101 0.29421362
0.2432394 0.33215204 0.28171378
0.23271228 0.32684109 0.28096917
0.22446491 0.33306164 0.275267
0.21861924 0.33199587 0.26934943
0.76782918 0.39150739 0.5467326
0.77012777 0.38462901 0.5461306
0.77440745 0.37827182 0.5452714
0.76090837 0.39326432 0.54401821
0.76351488 0.38654819 0.54072899
0.75044471 0.40244019 0.53561676
0.754067 0.3954671 0.54009861
0.75741428 0.38795829 0.53755355
0.73882532 0.41056007 0.53426588
0.74418694 0.40533602 0.53179574
0.73195165 0.42121524 0.53046244
0.73574096 0.41572648 0.52924424
0.73903537 0.4073092 0.52803385
0.72094679 0.4310486 0.52552342
0.72546756 0.42415261 0.52458853
0.72922498 0.41955835 0.5258866
0.71652776 0.43489569 0.52112222
0.72130436 0.42934465 0.52101219
0.70643562 0.44271287 0.51521796
0.70910788 0.43897185 0.51766998
0.69906235 0.46269178 0.51018631
0.70342302 0.44363937 0.51358354
0.6888867 0.48097566 0.49925283
0.6888867 0.47907278 0.49925283
0.67755616 0.49134523 0.50293767
0.67897427 0.48399156 0.5010947
0.68290222 0.47870785 0.49816713
0.67530298 0.49201727 0.49894637
0.6762194 0.48672643 0.50017506
0.25965756 0.33439636 0.2842848
0.25655341 0.33296308 0.28088406
0.25570303 0.32836503 0.28053537
0.2500329 0.33627227 0.27382606
0.23286356 0.32760406 0.27090162
0.22750308 0.33247384 0.26610717
0.23044829 0.3281756 0.2640076
0.21895236 0.33216032 0.25764796
0.22709909 0.32779369 0.25888216
0.21674724 0.33355498 0.25612438
0.2167815 0.329887 0.25576642
0.7818166 0.37555403 0.53860599
0.77513778 0.38137111 0.53597498
0.77901936 0.37849513 0.53763312
0.76523906 0.3921963 0.5277223
0.76863307 0.38330114 0.53442115
0.75400937 0.40079328 0.53145969
0.75711066 0.39613274 0.53025538
0.74689209 0.40076932 0.52760118
0.74765557 0.39777943 0.52617955
0.73789984 0.41385707 0.51895928
0.74038297 0.40507144 0.51882702
0.74217188 0.39875063 0.52045023
0.72750616 0.42281693 0.51742256
0.73207533 0.4159047 0.51425195
0.73625827 0.40951931 0.5126372
0.71992397 0.43370989 0.51156527
0.7223326 0.42493704 0.51236945
0.72539306 0.41805387 0.51084685
0.70875973 0.45442733 0.50734252
0.71180904 0.44236755 0.5058552
0.71640819 0.43780458 0.50794166
0.70239371 0.46198684 0.50361878
0.70481104 0.45540524 0.50243568
0.70784223 0.4482902 0.5026775
0.69121969 0.48152915 0.49933988
0.69206339 0.47835401 0.49977908
0.68257928 0.49004459 0.48920554
0.68342477 0.48695347 0.48814252
0.68524826 0.47633645 0.49302292
0.67596763 0.50133771 0.48238191
0.6789189 0.49499607 0.48675746
0.68172789 0.48526442 0.48876238
0.68067688 0.47881719 0.49159738
0.67488724 0.50190872 0.48069221
0.26835218 0.34020579 0.27471852
0.26464802 0.33751783 0.27504516
0.26079339 0.33353588 0.26898018
0.25381064 0.33545706 0.26421809
0.24181134 0.33465147 0.26315817
0.23704328 0.33164397 0.25541532
0.23257789 0.32775962 0.25515774
0.22499147 0.33668727 0.25011906
0.22639839 0.32540619 0.25710824
0.21850508 0.33120409 0.24708101
0.78425783 0.37358493 0.53593105
0.77535111 0.38108066 0.5318585
0.77908218 0.37724936 0.53119361
0.76732588 0.39157689 0.52467495
0.77135384 0.38536847 0.52428192
0.76148516 0.40098897 0.51825261
0.76291054 0.39509428 0.5186187
0.76579165 0.38889819 0.51966745
0.75494891 0.40112019 0.51232231
0.75720531 0.39828393 0.51307225
0.7452898 0.40386689 0.50823265
0.73523176 0.4142001 0.50468105
0.73764288 0.40852192 0.51110321
0.72226524 0.43070617 0.50309873
0.72696871 0.42490292 0.5010376
0.7321558 0.41759989 0.50035548
0.71382326 0.4427323 0.49804685
0.71827245 0.43563214 0.50011855
0.70499521 0.46376929 0.4914788
0.705167 0.45294005 0.49376518
0.70888406 0.44536981 0.49291244
0.70136744 0.46346182 0.48474485
0.70326501 0.45607087 0.48805502
0.70459175 0.44751525 0.48781154
0.6877898 0.48512548 0.4803623
0.68745655 0.47742912 0.48610747
0.69593984 0.46245581 0.48037687
0.69490528 0.45846513 0.47983846
0.6806612 0.49396887 0.47888079
0.68478465 0.48899645 0.48156008
0.67356801 0.50208616 0.47775081
0.67576957 0.49873748 0.47852096
0.26746902 0.34138823 0.26242152
0.26365337 0.33656117 0.26325384
0.24483615 0.33849144 0.25345901
0.23910022 0.33248067 0.24821861
0.23743606 0.32770398 0.24495672
0.22580878 0.33488095 0.24280332
0.23059547 0.32799435 0.24314743
0.22095837 0.33282605 0.2396773
0.22465855 0.32775131 0.2393862
0.79091543 0.3734746 0.52671361
0.79282439 0.36774346 0.52517068
0.77912647 0.38096544 0.52142262
0.7842105 0.37499776 0.52080786
0.7882551 0.36952469 0.52279228
0.77357829 0.38212785 0.5183844
0.77567315 0.37551093 0.51614922
0.7671302 0.39300734 0.5085752
0.76830703 0.38466486 0.5104143
0.76894826 0.37695602 0.51193738
0.75567847 0.40022764 0.50245333
0.75877351 0.3972643 0.50575548
0.74946344 0.40339553 0.50048649
0.75393492 0.39874682 0.50154585
0.73816603 0.41216722 0.49945766
0.74233842 0.40775433 0.49954918
0.72680467 0.43185297 0.49306074
0.72893155 0.42456231 0.49336255
0.73226076 0.41705388 0.49281532
0.71871006 0.44133228 0.48912913
0.72225219 0.43465456 0.4874908
0.72431988 0.4256275 0.4860872
0.72817838 0.41912043 0.48757523
0.71252209 0.44265124 0.48271877
0.7165637 0.43631515 0.48204193
0.71872073 0.42868003 0.48096129
0.70412117 0.45516938 0.47763932
0.7083261 0.44768345 0.47708789
0.69273561 0.49128813 0.47025385
0.69280052 0.48307258 0.47495073
0.69162947 0.4780798 0.47475117
0.69700575 0.46066204 0.47003394
0.6987434 0.45623511 0.47259191
0.68614769 0.49383676 0.46842557
0.68876767 0.48625228 0.46769536
0.68995237 0.47796392 0.47275096
0.67499387 0.51075917 0.46327361
0.67752069 0.50420314 0.46526918
0.67964929 0.49514881 0.46481115
0.68166399 0.4867999 0.46279973
0.67044926 0.51169336 0.45733812
0.67226899 0.50641793 0.45805031
0.66641456 0.51332867 0.45373479
0.26888776 0.34304705 0.24681328
0.26656303 0.34075037 0.2456032
0.26230982 0.33666655 0.24400418
0.25281566 0.34321421 0.24430974
0.25567883 0.33939934 0.24782923
0.24183907 0.33060753 0.24062541
0.24110967 0.32825038 0.23648781
0.23291162 0.3314808 0.23034163
0.23725851 0.32820788 0.23260428
0.21751322 0.34461796 0.22525755
0.21761477 0.33441764 0.22418301
0.80190992 0.36731273 0.51975369
0.79615372 0.37047994 0.51619381
0.8046267 0.36975336 0.51440364
0.78891456 0.37283137 0.5141167
0.77818269 0.3797057 0.50063896
0.76650602 0.39171234 0.50470728
0.7674067 0.38688344 0.50165308
0.76177824 0.39289811 0.49895433
0.76594836 0.38815919 0.49663824
0.74957627 0.40240484 0.4937655
0.75401545 0.39726368 0.49380887
0.74323082 0.41229087 0.48777512
0.74602181 0.40481219 0.48648047
0.74821281 0.3996104 0.485039
0.73358393 0.42139482 0.47930318
0.73793501 0.41511285 0.48189864
0.74041677 0.40793577 0.48173252
0.72774303 0.42378262 0.47847062
0.73234642 0.41951513 0.47678021
0.7123962 0.44098145 0.47654191
0.7158953 0.43442172 0.47447994
0.71942329 0.42822856 0.47771955
0.7086792 0.44480509 0.47034818
0.7139793 0.43920106 0.47003809
0.69859999 0.48316348 0.4607175
0.69723231 0.45376322 0.46767181
0.70143378 0.44843373 0.46532413
0.6925621 0.48652494 0.46070623
0.69418806 0.4541223 0.46410477
0.67813718 0.50050378 0.45589086
0.68031973 0.49536195 0.45480537
0.68192446 0.48494163 0.45525861
0.67285699 0.50341719 0.45184368
0.67636126 0.4957391 0.44939235
0.66535819 0.51214319 0.45064831
0.66783428 0.50859284 0.45015225
0.26920184 0.34085083 0.24472201
0.26671737 0.33653095 0.24455631
0.25506914 0.34217092 0.23578736
0.25558785 0.33646959 0.23559241
0.24986728 0.34303233 0.22997513
0.24842563 0.33465734 0.23137096
0.24574493 0.32937825 0.23138489
0.23875472 0.33432269 0.22774634
0.23506704 0.32883051 0.2275178
0.22901222 0.33098605 0.22380243
0.2300259 0.32946953 0.22292091
0.21668044 0.34737018 0.21851088
0.22047955 0.33369809 0.21710628
0.21747121 0.33753407 0.20990358
0.80880564 0.37099952 0.50756001
0.81011879 0.36641148 0.50984067
0.81286031 0.35720238 0.50891894
0.80316591 0.37319216 0.50508851
0.8049441 0.36979634 0.50329524
0.79431611 0.37418196 0.50129896
0.79603249 0.36979634 0.49865651
0.78594595 0.3753531 0.49714899
0.78979433 0.36979634 0.4954094
0.77416873 0.38255104 0.49535543
0.77687854 0.37850684 0.4936296
0.76361924 0.39139238 0.48760948
0.7678349 0.384572 0.48971844
0.77216023 0.37944481 0.48735785
0.75585222 0.39443499 0.48728687
0.74562544 0.40203968 0.47918266
0.74860466 0.39639884 0.48324835
0.73808563 0.41205999 0.47577059
0.74398261 0.40703842 0.47663656
0.72922194 0.42417854 0.47124571
0.73159766 0.41600528 0.47300845
0.72238672 0.43217996 0.46543294
0.72489089 0.42698944 0.46444422
0.71161091 0.44189885 0.46213502
0.71550977 0.43617538 0.46155959
0.70331854 0.48665437 0.45152426
0.70209873 0.45734304 0.45201668
0.70436364 0.44480565 0.4592303
0.69875002 0.49098745 0.44989774
0.69628173 0.48597035 0.44938338
0.70156914 0.46035293 0.44948626
0.69903159 0.45653933 0.45402762
0.70021957 0.44984257 0.45442066
0.68634057 0.48201418 0.44842604
0.68603855 0.47986385 0.4470391
0.67481148 0.50288695 0.44087312
0.67784727 0.49407539 0.44111744
0.68054444 0.48727277 0.44305202
0.66863686 0.52201396 0.43510011
0.67107224 0.51563156 0.43530309
0.67407322 0.50690919 0.43722382
0.66497535 0.52291089 0.43088943
0.2744666 0.35300031 0.2350615
0.2728568 0.35138813 0.23309623
0.27184141 0.34563959 0.23031297
0.26815736 0.33887169 0.22614059
0.26252735 0.33846584 0.22546475
0.2568087 0.33741474 0.21854232
0.23972982 0.33030692 0.2192349
0.23460865 0.33085138 0.21487823
0.22651835 0.33518472 0.20469214
0.22072516 0.33676016 0.20483311
0.81262434 0.36306626 0.50350094
0.81579566 0.35706568 0.50330693
0.80729753 0.36623001 0.49929333
0.79751498 0.36677694 0.49657217
0.78947824 0.3751654 0.48588783
0.79195374 0.36898455 0.49315131
0.78164923 0.38088828 0.48282731
0.78320926 0.37702346 0.48204684
0.76726681 0.39039338 0.47973758
0.77172321 0.38560969 0.47841212
0.77808058 0.37992302 0.47803855
0.76282269 0.39323783 0.4755863
0.76510817 0.38838032 0.47241348
0.74987507 0.40247262 0.47209403
0.7546429 0.3950825 0.46968734
0.75972295 0.38886726 0.46904671
0.74237144 0.41239831 0.46533847
0.74571913 0.4057188 0.46691403
0.74881887 0.39877194 0.46776757
0.73341238 0.42249179 0.4594582
0.73757195 0.41664341 0.45895723
0.72499245 0.43188104 0.45265976
0.72824597 0.42470098 0.45403758
0.73119748 0.41874361 0.45448047
0.71852821 0.43376076 0.45065719
0.72281945 0.42743254 0.44949943
0.70636684 0.45132411 0.44493759
0.70937085 0.44441062 0.44682196
0.71261162 0.43643612 0.44684941
0.70180345 0.46205381 0.44316617
0.70403707 0.45671904 0.44220304
0.69222867 0.48360536 0.43551874
0.69133687 0.47821838 0.43336985
0.68059844 0.49511114 0.43105471
0.68577284 0.4857733 0.43136275
0.68799448 0.47960204 0.43114677
0.6699512 0.51318324 0.43077374
0.67403257 0.50594074 0.42916006
0.68078762 0.49282479 0.4273954
0.68078762 0.48977339 0.4273954
0.66428584 0.52491862 0.42575786
0.66623878 0.51506215 0.42686844
0.66939783 0.50777459 0.42293242
0.25490373 0.3342382 0.21492028
0.25551438 0.32557794 0.21392284
0.24874495 0.33321962 0.20916933
0.25117534 0.32795054 0.21053694
0.23840585 0.33498877 0.19768964
0.23137568 0.33427987 0.19835193
0.21915153 0.34182805 0.19161309
0.22189388 0.33897236 0.19247681
0.21726067 0.34449351 0.19175619
0.82605034 0.35383847 0.49586797
0.82654816 0.34999222 0.49537548
0.82819068 -0.52436227 0.49375024
0.82841468 -0.53172541 0.4935286
0.81816679 0.36206767 0.49364328
0.82073253 0.35557705 0.49279922
0.82473284 0.34999222 0.4944306
0.82630479 -0.52582037 0.49231759
0.8114472 0.36306611 0.49119782
0.81416321 0.35791889 0.48905417
0.79753667 0.37054771 0.48591119
0.80223221 0.36665744 0.48601386
0.79211915 0.37156615 0.48309115
0.79430014 0.36759761 0.48197177
0.78483772 0.37583193 0.47591901
0.77554893 0.38215676 0.47187969
0.77932817 0.37809584 0.46999124
0.7673198 0.3848722 0.46828026
0.75513238 0.39204302 0.46177205
0.75932378 0.38722867 0.46500599
0.74688768 0.4027276 0.45781296
0.75116533 0.39756775 0.45941663
0.73921764 0.41239232 0.45420185
0.74225509 0.40623093 0.45161986
0.72647446 0.4210611 0.45004907
0.73147923 0.41437665 0.44874594
0.73597741 0.40866509 0.44578877
0.72159922 0.42543167 0.44618517
0.72601736 0.41703638 0.44567752
0.70843786 0.44142565 0.4406606
0.71255744 0.43432891 0.44055033
0.71944559 0.4299264 0.43962625
0.70561218 0.45400101 0.43336502
0.7062093 0.44489306 0.43369037
0.70746243 0.43671972 0.43395248
0.70313102 0.44466943 0.42775205
0.68138295 0.50150108 0.42657793
0.68197823 0.49796304 0.42576048
0.68323928 0.48289806 0.42713425
0.68595821 0.47625884 0.42587399
0.67689234 0.50252795 0.42145523
0.67965263 0.49601012 0.42166111
0.68150383 0.4851121 0.42141387
0.68273699 0.47528809 0.41908386
0.68270379 0.46935213 0.41787079
0.66660458 0.53190374 0.41392514
0.66879046 0.52499151 0.41312641
0.67014825 0.51656413 0.41130117
0.67395693 0.50490999 0.41685024
0.66127902 0.5323289 0.40949953
0.66370034 0.52642506 0.40808964
0.66670871 0.5186913 0.40879342
0.65549254 0.53396279 0.40596145
0.27005303 0.34490466 0.20871376
0.26427454 0.34274137 0.2060817
0.25891638 0.32657045 0.202729
0.25328776 0.32706228 0.20149025
0.83385408 0.35197684 0.48536822
0.83441359 -0.5091005 0.4848139
0.83415061 -0.51318252 0.48467711
0.83065444 -0.53754842 0.4913125
0.83177441 -0.54459906 0.49020433
0.82723683 0.35551614 0.4822056
0.83073252 -0.50962001 0.48289785
0.82999635 -0.51419181 0.48251465
0.81558174 0.36448744 0.47789264
0.8226375 0.35863104 0.47981155
0.80950189 0.36681968 0.47511613
0.79604357 0.37166283 0.4702529
0.79948372 0.36843508 0.471818
0.79056185 0.37627542 0.46711248
0.77847451 0.38156727 0.46039373
0.78298008 0.37825438 0.46236321
0.77223158 0.3840718 0.4574393
0.76108265 0.39179593 0.45165405
0.76610959 0.38770083 0.45294967
0.75003308 0.40036473 0.44878358
0.75525886 0.39546883 0.44807819
0.74542403 0.4017379 0.44638443
0.74961841 0.39826742 0.44405827
0.73371053 0.41205826 0.43600333
0.73701519 0.40700498 0.44027308
0.72323871 0.43061957 0.43483648
0.72805989 0.42458376 0.43244454
0.73118782 0.41637221 0.43266091
0.71943551 0.43317562 0.4290989
0.72286922 0.4280856 0.42838103
0.70374376 0.45337638 0.42694366
0.70588851 0.44059962 0.42411429
0.711739 0.43587214 0.42315453
0.69916439 0.48112816 0.41779584
0.70086896 0.45324436 0.42118829
0.70344114 0.44657007 0.41927031
0.70609158 0.43766725 0.41877106
0.69306213 0.47717074 0.41574678
0.69741434 0.45188484 0.41500595
0.68061566 0.49519446 0.41299707
0.68114775 0.48461872 0.41286466
0.68139058 0.47461283 0.40998471
0.68063164 0.46931276 0.4137859
0.67051345 0.51187724 0.40927067
0.67436779 0.50471175 0.40755665
0.67539901 0.49520686 0.4047409
0.67660588 0.48485079 0.40560263
0.67658454 0.47699487 0.40370101
0.66325498 0.5225606 0.4037264
0.66431302 0.51429278 0.40477493
0.66720545 0.50560808 0.40153641
0.66947472 0.4972735 0.39912069
0.66268188 0.53715593 0.39655113
0.660941 0.52221274 0.39789966
0.659527 0.51529276 0.3978079
0.6621176 0.50963145 0.39738473
0.27173021 0.34543455 0.20169517
0.2653372 0.34235787 0.19705229
0.26440144 0.33788449 0.19499938
0.26116595 0.3360903 0.19319001
0.25456139 0.32730913 0.19144323
0.25032264 0.33127892 0.18641846
0.24287723 0.34022015 0.18367033
0.23326524 0.3395896 0.17415759
0.22204836 0.34431332 0.17202321
0.2234194 0.3342025 0.17297836
0.83710915 0.35076177 0.48283494
0.8359049 -0.50861162 0.48333547
0.8355267 -0.51764596 0.48426598
0.83980572 -0.52608633 0.48085651
0.83603907 -0.53370595 0.48039907
0.83860469 -0.54173851 0.4799495
0.83873796 -0.55571115 0.47827134
0.82955539 0.35442141 0.47578627
0.82922208 0.34886879 0.4716835
0.83147329 -0.51847804 0.4821561
0.82483661 -0.53984821 0.4775742
0.82766235 -0.54581779 0.47754195
0.83067632 -0.55323619 0.47685599
0.81937891 0.36174494 0.47278607
0.82210869 0.35634336 0.47087812
0.82625186 0.34877747 0.47041932
0.8232612 -0.54667145 0.4756268
0.82315463 -0.55151296 0.46880716
0.81498671 0.36544588 0.46590826
0.81682169 0.35776782 0.4647592
0.79972005 0.371088 0.46337306
0.80397493 0.36738443 0.46087942
0.79350126 0.37339106 0.45924354
0.79796183 0.36784491 0.45637012
0.78422832 0.38167658 0.45042408
0.78767478 0.37646991 0.45484862
0.7776798 0.38387534 0.44698119
0.76757073 0.38454023 0.4449476
0.77177745 0.37939411 0.44150046
0.75596172 0.39256769 0.43987116
0.75980318 0.38889357 0.44050181
0.74989438 0.40409434 0.43419656
0.75219357 0.39564267 0.43515843
0.74100494 0.40894479 0.43055585
0.72676885 0.42097592 0.42709139
0.73095286 0.41540077 0.42778331
0.71878326 0.43056893 0.42237109
0.72277725 0.42444912 0.42115805
0.72581035 0.41945854 0.41888887
0.7146222 0.43258283 0.4162218
0.71926373 0.4272365 0.41458875
0.70422739 0.48458993 0.40577555
0.70596766 0.44557577 0.40928841
0.70903367 0.43525282 0.41428983
0.70236748 0.48248997 0.40480742
0.69637179 0.45359588 0.40724277
0.69862151 0.44805464 0.40641305
0.68849546 0.45577955 0.40301198
0.67704076 0.49300724 0.39387897
0.67635703 0.48815474 0.3972809
0.66725457 0.53477591 0.39118072
0.66925389 0.5124045 0.3886984
0.6716882 0.49486101 0.39616603
0.66032761 0.5420748 0.38968894
0.66316944 0.53728747 0.38665873
0.66207397 0.52343899 0.38856867
0.66311967 0.51758903 0.38851175
0.65476108 0.543024 0.38532573
0.65607178 0.53959548 0.38409156
0.26214787 0.33245966 0.18092439
0.25104725 0.34222004 0.17514627
0.25391066 0.3324599 0.17325464
0.25227073 0.32919303 0.17052211
0.24966687 0.33297294 0.16916674
0.24929488 0.32751304 0.16897312
0.23757324 0.34156185 0.17019959
0.22251227 0.34599271 0.15503222
0.20738304 0.38887149 0.15053916
0.21075755 0.36169994 0.15060459
0.20940766 0.35821852 0.14933826
0.14809485 -0.55011517 0.11742359
0.85006636 0.34587985 0.47210538
0.84082216 0.3521727 0.47437084
0.84411323 0.34792233 0.47254983
0.84480757 -0.48378885 0.46880439
0.84745002 -0.50806886 0.47356194
0.84558362 -0.51239789 0.47371784
0.8397482 -0.5265705 0.47481397
0.83552557 0.35231698 0.47242808
0.83375436 0.34643796 0.46849978
0.83198994 -0.54443705 0.46799475
0.83436412 -0.5588367 0.46787775
0.82317066 0.35228297 0.46529254
0.82573688 0.34763113 0.46312177
0.82415664 -0.5389002 0.45805511
0.82596886 -0.54508907 0.46202183
0.82212466 -0.55126363 0.46601632
0.81492555 0.3651534 0.4579969
0.81674218 0.35495996 0.45884606
0.82001716 0.34833616 0.45871878
0.82227927 -0.5389002 0.45707789
0.82181501 -0.54294044 0.45638528
0.80937034 0.36363217 0.45213005
0.79533517 0.37114123 0.44718653
0.79838341 0.36655879 0.45140371
0.78954816 0.37431607 0.4447917
0.78102058 0.38111496 0.44397649
0.78116995 0.3772096 0.44139147
0.76850218 0.38456768 0.43572468
0.77132797 0.37790537 0.43732083
0.76344055 0.38506457 0.43053293
0.76842362 0.37922803 0.43017218
0.75189584 0.40291256 0.4249512
0.7546348 0.39499339 0.42637694
0.75911784 0.38604942 0.42499021
0.74271619 0.41094202 0.42287868
0.7457248 0.405101 0.42237622
0.74636185 0.39897507 0.42066142
0.73528868 0.41458011 0.41883001
0.74041337 0.40342113 0.41759643
0.74091679 0.39863801 0.41585428
0.72717309 0.41477928 0.41508868
0.71858108 0.42319945 0.41136798
0.72075504 0.41776562 0.41249961
0.70482856 0.46197161 0.40496108
0.70689112 0.44215432 0.40565893
0.70887798 0.43599004 0.40481412
0.69788516 0.45123106 0.39683744
0.70079631 0.44441113 0.39953944
0.7035259 0.43707666 0.40122306
0.69168407 0.47393265 0.39135498
0.69192278 0.46531138 0.38960031
0.69437575 0.45423505 0.39254466
0.6981402 0.44846591 0.39170912
0.67926192 0.49373794 0.38883471
0.68037671 0.48189229 0.38997862
0.68479955 0.47655824 0.38925469
0.688407 0.46216506 0.38852179
0.67453229 0.51722711 0.37904495
0.6764766 0.50258523 0.38132527
0.67653102 0.49476859 0.38303804
0.67687428 0.48539498 0.38561901
0.66276711 0.53425473 0.38227811
0.66412437 0.52487129 0.381378
0.67171335 0.51934898 0.37757763
0.67265296 0.49388671 0.37806669
0.65734518 0.55195332 0.37066233
0.65806335 0.54350555 0.37392968
0.66076946 0.53911263 0.37695429
0.27333453 0.34954455 0.1769768
0.26888537 0.34269756 0.17296994
0.26687136 0.33812374 0.17304888
0.25465792 0.33056611 0.16725522
0.24837548 0.34709978 0.16173038
0.24861607 0.33392829 0.16140461
0.24689633 0.32749087 0.16377886
0.24058183 0.34341955 0.15928411
0.23829107 0.33457476 0.15805954
0.24021187 0.32568228 0.1590696
0.23558226 0.34252247 0.15507123
0.23228668 0.33357021 0.15520051
0.23142961 0.32460648 0.15392421
0.22085835 0.34195495 0.1517555
0.22230232 0.33465049 0.14877889
0.22358206 0.32621768 0.14764127
0.20983404 0.39171889 0.1439234
0.21222496 0.37081909 0.13840377
0.21169624 0.35637435 0.14151061
0.21730468 0.34110969 0.14781204
0.21590683 0.33547628 0.14482965
0.21702129 0.32900217 0.14353083
0.20636553 0.39472982 0.14211796
0.20742585 0.38860676 0.14154252
0.20940602 0.37081909 0.13693644
0.20865847 0.36532268 0.13902749
0.20821635 0.35803699 0.13969925
0.15944006 -0.55778235 0.11656485
0.15259516 -0.55445629 0.11262619
0.14204548 -0.55213368 0.10337699
0.85360157 0.34269574 0.46718132
0.85472053 0.33895531 0.46607274
0.85404074 -0.50723147 0.46722206
0.85377502 -0.51077229 0.46558058
0.85154104 -0.55602598 0.46779981
0.84824967 0.34488562 0.46234584
0.85336953 0.3396506 0.4631148
0.8516804 -0.48458135 0.4633629
0.84645218 -0.50677913 0.46255815
0.84897542 -0.5129078 0.46308228
0.84501034 -0.53242993 0.46477631
0.84830785 -0.54863888 0.46386221
0.84700429 -0.55312651 0.4645527
0.83967513 0.34422398 0.45664963
0.84001446 -0.49743271 0.45864341
0.83972842 -0.50364929 0.45898634
0.83942008 -0.54811496 0.45886016
0.83245528 0.34603241 0.45234123
0.83040828 -0.53591025 0.44913369
0.8300162 -0.54314864 0.45073336
0.83396941 -0.55788654 0.45076188
0.81813514 0.35341853 0.45182055
0.82469541 0.34927166 0.4515714
0.82607657 -0.53362745 0.44749892
0.80967844 0.36166206 0.44713676
0.81233484 0.35727584 0.44501877
0.81233609 -0.55380541 0.44476235
0.80366826 0.36480394 0.44045925
0.80750042 0.35709468 0.43748525
0.78993249 0.37071052 0.43629485
0.79643363 0.36773589 0.43629679
0.78326142 0.38029867 0.426622
0.78594804 0.37454525 0.4305101
0.78142083 0.38088256 0.42397287
0.78248167 0.37666067 0.42433724
0.76543957 0.38028514 0.42354575
0.76727724 0.37969798 0.42619336
0.75675899 0.39380369 0.41907859
0.75755113 0.38640949 0.41950235
0.75180817 0.40035617 0.41391379
0.75259322 0.39577579 0.41460431
0.75417292 0.38908401 0.4148629
0.74225622 0.41298863 0.40718573
0.74172372 0.40558371 0.40672472
0.74536514 0.39955303 0.40689614
0.73345637 0.41359743 0.40248781
0.73798561 0.40795365 0.40155178
0.72140539 0.43449426 0.40017399
0.72396821 0.4234789 0.40026808
0.72712332 0.41772717 0.40303767
0.71084011 0.48802429 0.39681658
0.70955813 0.46726504 0.39502192
0.71447593 0.43353292 0.3949244
0.70633847 0.44288212 0.39052764
0.71006399 0.43823141 0.3907758
0.69767141 0.47315598 0.38996202
0.69484955 0.46890789 0.38849318
0.69355011 0.45663607 0.38668942
0.68826526 0.47209394 0.38506588
0.69022864 0.46652284 0.38383314
0.67796874 0.51337457 0.3777335
0.6739673 0.50421548 0.37705982
0.67678207 0.49398077 0.37288812
0.68274027 0.48908624 0.37260744
0.66799128 0.53431356 0.36812443
0.67041874 0.52684051 0.36923766
0.67108005 0.50182146 0.37536898
0.67202777 0.49646226 0.37379551
0.66118842 0.55043364 0.36082557
0.6624186 0.54298627 0.36439702
0.66462016 0.53565234 0.36473393
0.26056433 0.33498651 0.15229186
0.24982297 0.344524 0.15633444
0.25780031 0.33321303 0.15175506
0.25371563 0.3274233 0.15192115
0.24629657 0.34606966 0.15388404
0.24638817 0.32449901 0.15017384
0.23606218 0.32272118 0.14324215
0.22176675 0.35332835 0.14167945
0.22820985 0.32192746 0.13977213
0.21239938 0.37583694 0.1362398
0.21784376 0.35106465 0.13005488
0.21730231 0.34671122 0.134057
0.20935771 0.38485193 0.13282464
0.20990296 0.37625766 0.13475254
0.21252424 0.35476235 0.12768853
0.21307522 0.34668967 0.1278546
0.21364272 0.33785522 0.12899549
0.16267617 -0.5647257 0.10472103
0.15601824 -0.56094354 0.10238273
0.14704691 -0.55608439 0.097290151
0.15233886 -0.56003028 0.095958121
0.14217322 -0.55199546 0.093860857
0.86119598 0.34070671 0.45676047
0.86324412 0.33781281 0.45617586
0.85962349 -0.50460178 0.45396915
0.85962349 -0.51325566 0.45396915
0.85379678 0.34212282 0.45251447
0.85711771 0.33931941 0.45210114
0.85770732 -0.50784695 0.45297176
0.85298675 -0.51581144 0.44966906
0.85141325 -0.52099395 0.44856814
0.85387504 -0.53921717 0.45097697
0.84812659 -0.50243831 0.44798478
0.84716851 -0.51217389 0.44748607
0.84293294 -0.52377075 0.4501377
0.84320837 -0.53299862 0.44711572
0.84433931 -0.55071425 0.45334122
0.8361336 -0.51874 0.44850627
0.83420664 -0.52483219 0.44739577
0.8355087 -0.53308338 0.44667786
0.83172441 -0.55552244 0.44790232
0.8354122 -0.56117439 0.44925818
0.8283239 -0.52820051 0.44353929
0.82541627 -0.53217894 0.44180039
0.81483495 0.35518551 0.43798354
0.81658417 -0.55858111 0.43607563
0.81658417 -0.56073582 0.43607563
0.8032431 0.36084476 0.43326503
0.8064329 0.35568032 0.43317169
0.7948463 0.37130418 0.42757899
0.79776943 0.36473414 0.42853692
0.80087644 0.35802251 0.42925227
0.78863245 0.37102047 0.42519006
0.79076314 0.36844909 0.42326155
0.77874887 0.38146222 0.41841087
0.78060436 0.37526447 0.42010334
0.78404284 0.36896691 0.42251924
0.77270275 0.38277507 0.41238886
0.77497816 0.37738085 0.41257405
0.76189995 0.39323428 0.40310192
0.76553565 0.38733065 0.40950385
0.75542575 0.40199992 0.40198666
0.75649524 0.397239 0.40072232
0.74589282 0.40243411 0.39790136
0.75002968 0.39837471 0.39827594
0.73476654 0.42222667 0.38954207
0.73769975 0.41470075 0.39095604
0.74061888 0.40697011 0.39585769
0.72563809 0.43308455 0.38963819
0.73081088 0.42581698 0.38743973
0.73377061 0.41962013 0.38733253
0.72004718 0.43315333 0.38434643
0.70810068 0.45112401 0.37904394
0.71124029 0.44680172 0.3812418
0.69995546 0.46306807 0.37356406
0.70306575 0.45623678 0.37507895
0.69153434 0.48289174 0.37295729
0.69639474 0.47568205 0.36916599
0.69692785 0.4649708 0.36920202
0.69924504 0.45860183 0.36936122
0.68072551 0.52158451 0.36761299
0.68185145 0.51704502 0.3659443
0.68310553 0.49108338 0.36828813
0.6864416 0.48661762 0.37284297
0.67209917 0.53008133 0.35974067
0.67505854 0.52445281 0.36167318
0.67787957 0.51638144 0.36082646
0.67480671 0.50425661 0.36340478
0.6750378 0.49734735 0.36690706
0.66391301 0.56186366 0.3566069
0.66305405 0.55471241 0.35567668
0.66749114 0.53162837 0.357483
0.67065436 0.5262875 0.35585701
0.27129987 0.34533745 0.15562521
0.26844603 0.34104118 0.15413971
0.26507032 0.33416894 0.15022181
0.26273832 0.32815239 0.15116872
0.26070005 0.33210978 0.1512351
0.26006654 0.3285332 0.15090534
0.24125333 0.3242583 0.13188876
0.23284492 0.32170013 0.1281867
0.23315001 0.31783456 0.12674844
0.21798229 0.33120513 0.12843597
0.22405779 0.326002 0.12737082
0.21168153 0.34446549 0.12045891
0.21508488 0.3342557 0.1274914
0.20546633 0.39288208 0.1132404
0.20480481 0.38414729 0.11687952
0.20536874 0.37545183 0.11822513
0.20794353 0.36640468 0.1173858
0.20242278 0.39235157 0.11131796
0.19896759 0.38369954 0.11106954
0.19936453 0.37732363 0.11254441
0.16570716 -0.56761879 0.10066187
0.16793504 -0.57224768 0.092802614
0.1602627 -0.57008207 0.088808991
0.14948118 -0.55766982 0.088189632
0.15503323 -0.56464165 0.087053291
0.14675432 -0.55305207 0.086770251
0.8726514 -0.4844569 0.44975865
0.86752468 0.34062245 0.44605666
0.86648059 0.33781946 0.44513741
0.86773038 -0.47904024 0.44879428
0.86577785 -0.48556286 0.45046201
0.86184585 -0.49094379 0.45174384
0.85734481 0.34148496 0.44314927
0.85928965 0.33711687 0.44252175
0.85678488 -0.48701492 0.44783199
0.85848242 -0.49202877 0.4499931
0.85711604 -0.50584477 0.44026297
0.85641456 -0.52556872 0.44714516
0.85629916 -0.53554958 0.44519272
0.85638642 -0.54388511 0.44514415
0.85814434 -0.55905962 0.44812617
0.84898603 0.34372452 0.44054052
0.85384619 0.3372854 0.43912467
0.84976065 -0.48709473 0.4443258
0.85065651 -0.50744849 0.44141003
0.84937119 -0.51035571 0.44074109
0.84972858 -0.53714204 0.44336966
0.84894347 -0.54366481 0.44164571
0.84815693 -0.5537867 0.43597534
0.84262621 -0.56906486 0.44173959
0.83693463 0.35283008 0.43764958
0.83875811 0.34607676 0.4374088
0.83997095 -0.56316948 0.43697539
0.82980019 0.36052456 0.43252683
0.83308673 0.35717452 0.43564683
0.83454156 0.34790939 0.43358552
0.82133454 0.35643551 0.42592195
0.81402743 0.35619909 0.41965076
0.81933522 -0.52334511 0.4205972
0.80685008 0.36354899 0.41506472
0.80873626 0.35641479 0.41530573
0.79374522 0.37223902 0.4112229
0.79649901 0.36838797 0.41772938
0.78647828 0.37327474 0.40760136
0.78617823 0.36905113 0.40371406
0.77442884 0.38311872 0.40229562
0.77939624 0.37533325 0.4031902
0.76748317 0.39209381 0.39687651
0.77072734 0.38596722 0.3970165
0.77412546 0.37973154 0.3981919
0.76099086 0.39417028 0.39378333
0.750835 0.40310526 0.38656971
0.75295055 0.39701447 0.38695863
0.74026233 0.41277751 0.38338387
0.74428087 0.40804613 0.38491189
0.72946161 0.42296645 0.38240138
0.7354207 0.41597232 0.38047794
0.72181493 0.43202379 0.37561348
0.72580171 0.42716053 0.37737435
0.71045476 0.45142007 0.37331721
0.71443629 0.44461805 0.37306657
0.71696144 0.43776149 0.37260798
0.70578021 0.45330042 0.36846489
0.70868045 0.4447605 0.36716157
0.71043116 0.43959615 0.36841971
0.69456482 0.48461011 0.36354309
0.69482297 0.47561729 0.36408725
0.69417131 0.4652625 0.36424008
0.69862223 0.45855957 0.36650056
0.6882416 0.49381557 0.35716623
0.69228351 0.48620436 0.35700074
0.69277954 0.47531539 0.35979539
0.69092965 0.46722618 0.36097446
0.67627388 0.51390731 0.35486767
0.68017685 0.50380921 0.35390148
0.68363023 0.49741057 0.35306007
0.66689128 0.56482822 0.34801102
0.66634834 0.55122614 0.34885573
0.6685645 0.54635042 0.34762937
0.66963458 0.53736162 0.3477478
0.6617825 0.56445086 0.34394252
0.66250098 0.55484843 0.34454465
0.66712964 0.54854441 0.34362561
0.65658683 0.57042867 0.33588308
0.65781581 0.56748122 0.33802599
0.27564642 0.35536778 0.14661407
0.27088466 0.34258044 0.13624398
0.27102816 0.33745486 0.13519126
0.25791207 0.33065671 0.13287352
0.2525259 0.32427597 0.13149405
0.25315368 0.31785846 0.12633818
0.24504119 0.32203537 0.13113436
0.24597238 0.31519607 0.12603669
0.24507049 0.30725992 0.12210246
0.2366621 0.31391338 0.1246606
0.23793699 0.30639645 0.11954496
0.22623803 0.32684276 0.11450753
0.22067046 0.3662391 0.1146158
0.21423072 0.34052086 0.11351852
0.21817081 0.33433956 0.114442
0.20645565 0.40093842 0.11059875
0.20512202 0.39777753 0.11065616
0.20689264 0.37370506 0.1046257
0.20870316 0.36551732 0.10725918
0.21048705 0.35725528 0.11016064
0.21239206 0.34303853 0.11143412
0.19938104 0.39354435 0.10480241
0.19750907 0.38732538 0.10556611
0.20337631 0.37591675 0.10335909
0.1946549 0.39443818 0.098255686
0.19348325 0.38697189 0.10030316
0.15261549 -0.55981928 0.083701111
0.15461673 -0.56369007 0.081360787
0.87806433 0.33727655 0.44440287
0.87582445 -0.47884026 0.44661906
0.87865829 -0.51780909 0.44283313
0.87955749 -0.52092087 0.44292542
0.87113774 0.33770838 0.44598335
0.8738811 -0.47884026 0.44560754
0.87253636 -0.48441786 0.43955255
0.86783952 -0.49004996 0.43682596
0.87284964 -0.5171411 0.4419139
0.87456691 -0.5211795 0.44295815
0.86610794 -0.53479242 0.44156143
0.86209685 0.33735135 0.43214568
0.86148202 -0.48881379 0.43126199
0.86405224 -0.49077991 0.43316352
0.86148202 -0.51090825 0.43126199
0.85724103 -0.52303612 0.43863705
0.86374277 -0.53629059 0.43948483
0.86320442 -0.56299251 0.43554059
0.85241693 0.34314215 0.43077102
0.8566792 0.33862886 0.43242601
0.85746002 -0.49286476 0.43085954
0.85517347 -0.5188517 0.43474236
0.85201824 -0.52355772 0.43409467
0.85287589 -0.55863684 0.43636489
0.84316039 0.3614639 0.42285249
0.84280217 0.34514794 0.42695007
0.84633416 -0.51829129 0.42976558
0.84551543 -0.52458388 0.43037271
0.84304547 -0.53206462 0.43068418
0.84013343 -0.54850405 0.4291684
0.83953208 0.36293215 0.420513
0.84155935 0.35391453 0.42145547
0.83872801 0.34811163 0.42449123
0.83666182 -0.54393977 0.42773724
0.83908194 -0.55509728 0.42411169
0.82682657 0.35669518 0.41547781
0.82766455 -0.51863605 0.41929623
0.82570535 -0.52309322 0.41930115
0.82556599 -0.53026718 0.4136942
0.81443405 0.35264194 0.41494587
0.82195628 -0.52484876 0.41557312
0.80486423 0.36461627 0.41080999
0.80712986 0.35730979 0.4119893
0.79825878 0.37119782 0.40596262
0.79987079 0.36611986 0.40511066
0.79164952 0.37124223 0.39852014
0.79294604 0.36900717 0.40066069
0.78137499 0.37622306 0.39397153
0.77171612 0.38235566 0.39194512
0.77671021 0.37909287 0.39164582
0.76102221 0.39128357 0.38798937
0.76401979 0.38754317 0.38767064
0.75452656 0.39240491 0.38348073
0.75791156 0.38822293 0.3841154
0.74604714 0.40448698 0.37777874
0.74934846 0.39721525 0.37717792
0.7341311 0.42111474 0.36891884
0.73514247 0.41639513 0.37254554
0.73857182 0.40895909 0.37743074
0.7230565 0.43085647 0.36935467
0.72941053 0.42498463 0.36600041
0.73330671 0.41926804 0.36454391
0.71764779 0.44137385 0.36202994
0.71948361 0.4349446 0.3625443
0.72358984 0.42727974 0.36122042
0.70908463 0.45378664 0.3581363
0.7127282 0.44362473 0.35721436
0.71667325 0.43915305 0.35588583
0.69618869 0.47817427 0.35480574
0.70127118 0.46402922 0.35508385
0.69173205 0.4922297 0.34583455
0.6950615 0.48615637 0.34773663
0.69483531 0.47548404 0.35060653
0.69369555 0.46766344 0.35332012
0.68010199 0.52329409 0.3436138
0.68102545 0.51403505 0.34353086
0.68298292 0.50406796 0.34240779
0.68693519 0.49633312 0.34184685
0.67105412 0.54289407 0.34153476
0.67256325 0.53437334 0.34232014
0.67505664 0.52531356 0.34136346
0.67582792 0.51461285 0.33851951
0.67799789 0.50566512 0.33722004
0.68014491 0.49733511 0.33687204
0.66312808 0.56009269 0.33365124
0.66409606 0.55354941 0.33539528
0.66628897 0.54499453 0.33647314
0.66645718 0.53471601 0.33709946
0.66718161 0.52478951 0.33496785
0.67038345 0.5169875 0.33310613
0.6553387 0.57218403 0.32959679
0.65762895 0.56502557 0.32988703
0.65900028 0.55522096 0.32856175
0.65915531 0.54514092 0.32802314
0.65720004 0.53465044 0.33035105
0.65945625 0.52768445 0.33050999
0.65036362 0.57203269 0.32512799
0.65066689 0.56465274 0.32462797
0.65235895 0.55882621 0.32466355
0.26634374 0.33355626 0.12617666
0.26194552 0.3312802 0.12539047
0.25964642 0.32684278 0.12350471
0.25607622 0.31412357 0.12543552
0.2564787 0.30559227 0.12189452
0.25741732 0.29912245 0.11720875
0.25177738 0.31042093 0.12404346
0.24973318 0.30355906 0.12038646
0.25035167 0.29679811 0.11519845
0.23979557 0.30094174 0.11639746
0.24217339 0.29602745 0.11247906
0.23110938 0.32243866 0.10952746
0.23221931 0.31369799 0.108602
0.23294997 0.3054072 0.10601377
0.236478 0.2989243 0.10706104
0.22350849 0.33299041 0.09955845
0.22833408 0.32614565 0.10282195
0.22941142 0.31100526 0.10225528
0.22941142 0.30658638 0.10225528
0.21043883 0.35404515 0.10027115
0.2146486 0.34380588 0.095698208
0.21864861 0.33862332 0.096653
0.20301971 0.4030242 0.097912349
0.20668311 0.3724741 0.098316222
0.206646 0.36400694 0.095065027
0.2074351 0.35695395 0.093231961
0.19668946 0.4018487 0.092268705
0.19372648 0.39880642 0.091572009
0.20108666 0.36375138 0.089766331
0.20186786 0.35890025 0.090172976
0.1919111 0.39960244 0.088372365
0.17131369 -0.57890177 0.081596687
0.16079946 -0.57729477 0.070674777
0.1483835 -0.5585584 0.067969978
0.15245607 -0.56387377 0.068962425
0.15691993 -0.57217121 0.067903876
0.14435647 -0.55666602 0.063135974
0.8831802 0.33579451 0.43609971
0.88579595 -0.47979897 0.43377164
0.88477302 -0.48273203 0.43307808
0.87727451 0.33771855 0.43296868
0.87643063 -0.4877423 0.43115148
0.87237072 -0.55813515 0.43523881
0.87004447 -0.5622822 0.43459156
0.86591649 0.33732414 0.42973712
0.8637321 -0.48926404 0.42792374
0.8648017 -0.49142703 0.42171624
0.86252701 -0.50258577 0.42560542
0.86370218 -0.51576716 0.42490193
0.86407828 -0.52661121 0.42246711
0.8662625 -0.55752313 0.43059367
0.86659431 -0.56413502 0.42903784
0.856224 0.34251425 0.42166683
0.86020803 0.33831942 0.42289513
0.8623445 -0.49779442 0.42118874
0.86252093 -0.50266916 0.42203227
0.86263168 -0.5189023 0.42396879
0.86335492 -0.52163994 0.42321801
0.86190826 -0.56173193 0.42471969
0.84701526 0.35425177 0.412458
0.85241437 0.34550428 0.41714731
0.84875709 -0.50925016 0.41843787
0.84974438 -0.51520616 0.42019168
0.84952074 -0.5237304 0.41996279
0.85178453 -0.53543931 0.41625583
0.85152054 -0.5416826 0.41705796
0.83770597 0.36215067 0.41485953
0.84117919 0.35712114 0.41173768
0.83941031 -0.52355236 0.41225749
0.84127337 -0.53494281 0.41214675
0.83913052 -0.5442875 0.41308889
0.8413682 -0.55176979 0.4185375
0.83353829 0.35665461 0.40749273
0.83082539 -0.53563589 0.40572187
0.83504534 -0.55561429 0.40960953
0.8202123 0.35273787 0.40537325
0.82079446 0.34926978 0.40294331
0.81291783 0.36335278 0.39884335
0.81797779 0.3559742 0.40016171
0.80484587 0.36858141 0.39219898
0.79708302 0.37270159 0.38736898
0.80057293 0.36987117 0.38828376
0.78616178 0.37630582 0.38545296
0.77837199 0.38314402 0.37928298
0.76482296 0.39026022 0.37531191
0.76992178 0.38573292 0.37697968
0.76039964 0.39312205 0.37113068
0.76598823 0.38995323 0.37028164
0.74895626 0.41145748 0.36367097
0.75086027 0.40760332 0.36297089
0.7524063 0.39597374 0.36997622
0.74308157 0.41398004 0.36346903
0.73308307 0.42209992 0.35371745
0.73356688 0.41829556 0.3612971
0.72155827 0.4313342 0.35279185
0.72611946 0.42639631 0.35471487
0.71218836 0.46190131 0.34829035
0.71247047 0.45479503 0.34831178
0.71510917 0.44486278 0.34718007
0.7188915 0.43681467 0.34894395
0.70722938 0.46525893 0.34320387
0.70931518 0.45693645 0.34486884
0.69179237 0.4904559 0.3418074
0.69541401 0.48450968 0.34108546
0.69751185 0.4745875 0.33784226
0.7019794 0.46878535 0.33905736
0.68671244 0.49161187 0.33868006
0.68935424 0.48486817 0.33512703
0.69300097 0.47541741 0.33311009
0.67499638 0.50426018 0.33268881
0.67777812 0.4940536 0.33300951
0.68147796 0.48721212 0.33060271
0.66864246 0.51370561 0.32836989
0.67079163 0.50459045 0.32766297
0.67279565 0.49508774 0.32759756
0.67624742 0.48852614 0.32526067
0.65653372 0.55238169 0.32345447
0.65653372 0.53026533 0.32345447
0.66162211 0.52486926 0.324889
0.66560638 0.51560229 0.32495606
0.66720277 0.50638491 0.32299542
0.65334845 0.56136668 0.31700513
0.65545124 0.55493778 0.31863216
0.6548357 0.54712385 0.322007
0.25902426 0.29723078 0.11541475
0.25511268 0.29282656 0.11112388
0.25417534 0.28541285 0.10650207
0.24324633 0.2919088 0.10810389
0.24589024 0.28513786 0.10427738
0.23147099 0.32016003 0.10219993
0.23147099 0.31684259 0.10219993
0.23215814 0.30109164 0.10218187
0.23552482 0.29418808 0.10156213
0.23762703 0.28417146 0.099716276
0.23773009 0.27749515 0.09694007
0.22373071 0.33154616 0.097043537
0.22610034 0.32435277 0.097783893
0.22654022 0.31517154 0.097167298
0.22824153 0.30361277 0.098264098
0.23144791 0.29577956 0.095235854
0.21516694 0.34362975 0.089203946
0.21814033 0.33464357 0.092201054
0.21857406 0.32589242 0.09195096
0.22073799 0.31772736 0.092103675
0.20616144 0.37619436 0.086771064
0.20976396 0.3539854 0.084011488
0.21095382 0.34516969 0.082360394
0.21123111 0.33510703 0.08546406
0.21200989 0.32709357 0.085869439
0.20150803 0.41085061 0.080403104
0.19824092 0.40681618 0.083775535
0.20118202 0.38135722 0.085306443
0.20434985 0.3747043 0.083573401
0.20543239 0.3551949 0.080593653
0.20670404 0.3408637 0.079161853
0.20664591 0.33503938 0.079977073
0.20662649 0.32826886 0.080248915
0.19474655 0.40831715 0.074628942
0.16407098 -0.58395773 0.061479937
0.15220089 -0.56589437 0.058119643
0.15717928 -0.57506418 0.057892509
0.16111821 -0.58062387 0.059942961
0.1452986 -0.55841124 0.056218036
0.15329446 -0.56840616 0.053615831
0.14049223 -0.56255376 0.045260802
0.89598304 0.33519584 0.42667323
0.87857264 0.33895659 0.42166939
0.87776119 -0.48823953 0.42677104
0.87590402 -0.4907403 0.42561647
0.87310433 0.33772179 0.41732654
0.86552495 -0.48855895 0.42096546
0.87236202 -0.49206927 0.42414856
0.86794555 -0.51520997 0.41906884
0.86715376 -0.5223766 0.41617647
0.86062938 0.34129089 0.41052571
0.86258197 0.33822921 0.41238755
0.85975891 -0.47991544 0.41458198
0.86095959 -0.48519689 0.41643691
0.86058652 -0.49203524 0.41751799
0.8629933 -0.51601994 0.41367263
0.86384058 -0.52200252 0.41445187
0.84861577 0.35099125 0.41178811
0.85453528 0.34509328 0.40841836
0.86006105 0.33970231 0.40797508
0.85383689 -0.48558602 0.41071901
0.8564086 -0.49212658 0.40870446
0.85401863 -0.51346058 0.41046667
0.84300387 0.35150638 0.40799019
